ncols 447
nrows 32
xllcorner    530060
yllcorner    180006
cellsize     2
NODATA_value -9999
4.343 4.473 4.021 4.056 4.061 4.108 9.606 9.353 9.168 10.331 17.701 17.603 17.568 17.413 17.303 17.271 17.203 14.543 14.083 14.116 14.133 14.153 15.271 16.323 17.623 18.306 17.686 17.651 4.141 4.211 4.243 4.288 4.306 4.296 4.333 4.413 4.461 4.461 4.503 4.498 4.576 4.433 4.341 4.236 4.278 4.263 4.691 26.316 27.151 28.136 29.206 29.793 29.958 29.773 28.801 27.658 26.693 22.998 3.706 3.716 3.758 3.783 3.828 3.986 4.168 4.111 4.421 2.193 2.086 9.463 25.833 31.763 33.386 33.481 33.476 33.426 35.328 34.923 21.651 5.901 11.896 12.286 12.026 21.081 11.326 15.931 18.883 12.008 22.488 26.781 26.056 24.146 26.028 28.121 23.481 9.771 22.831 10.103 17.521 15.826 8.538 18.721 29.546 7.586 33.533 35.153 33.681 33.438 33.513 33.553 35.151 33.216 27.216 4.728 4.491 3.766 2.028 1.671 1.923 2.583 3.356 4.106 4.639 4.739 4.821 4.954 5.059 4.734 4.864 4.724 4.786 4.789 4.791 4.834 4.839 4.936 4.976 5.089 4.981 4.726 5.624 9.472 6.597 13.802 6.827 4.534 4.683 4.74 4.537 4.456 4.346 4.283 5.434 4.598 4.76 6.343 -0.259 -0.319 -0.427 -0.361 -0.317 -0.283 -0.196 -0.401 -0.513 -0.364 -0.752 -0.676 -0.685 -0.446 -0.543 -0.877 -0.672 -0.708 -0.66 -0.855 -1.274 -0.674 -0.721 -1.054 -1.271 -1.345 -1.208 -0.985 -1.039 -1.481 -1.281 -1.714 -0.939 -1.139 -0.376 -1.269 -0.859 -1.259 -1.906 -1.221 -1.234 -1.704 -0.991 -2.039 -1.339 -1.511 -1.109 -1.081 -0.681 -1.024 -0.966 -0.839 -1.256 -0.716 -0.664 -0.661 -0.654 -0.914 -0.989 -1.031 -1.176 -0.849 -1.079 -0.981 -0.849 -1.239 -0.854 -0.746 -0.839 -0.731 -0.906 -0.831 -0.879 -0.994 -1.001 -0.719 -0.679 -0.821 -0.744 -0.579 -0.651 -0.866 -1.23 -0.748 -0.635 -0.658 -0.54 -0.493 -0.478 -0.54 -0.463 -0.479 -0.405 -0.505 0.125 0.146 0.839 0.457 0.214 0.622 1.36 0.637 3.729 3.32 3.012 -0.379 -0.479 -0.473 -0.443 -0.563 -0.591 -0.508 -0.541 -0.421 -0.471 -0.515 -0.443 -0.349 -0.365 -0.301 -0.414 -0.276 -0.244 -0.328 -0.43 -0.386 -0.391 -0.741 -0.605 -0.59 -0.523 4.569 5.415 6.056 5.385 5.362 5.384 5.391 5.435 5.407 5.385 5.331 5.354 5.716 5.819 5.934 6.044 5.871 5.774 5.736 5.929 5.981 5.971 6.031 6.284 6.599 6.956 7.271 7.446 7.491 7.546 7.534 7.444 7.406 7.331 7.236 7.184 7.066 6.971 6.814 6.764 6.711 6.519 6.366 6.119 5.896 5.621 5.324 5.109 6.096 5.844 5.034 5.286 4.929 4.906 5.119 4.401 4.639 4.011 3.981 3.751 3.424 3.464 3.446 3.354 3.594 3.431 3.436 3.401 3.419 4.704 4.259 3.744 4.056 5.096 3.194 6.391 9.229 9.494 9.674 9.701 9.726 9.224 4.074 4.011 4.144 4.144 5.504 4.214 4.346 7.864 7.759 7.734 7.706 7.694 7.709 8.449 10.336 10.279 10.261 10.224 10.186 10.154 10.174 14.746 38.294 41.064 42.964 33.046 45.886 47.619 47.636 47.616 47.631 47.601 47.599 47.584 47.589 44.724 43.069 41.034 32.836 32.596 7.976 6.479 4.606 2.069 2.061 1.974 2.051 2.031 2.029 1.994 2.049 5.106 3.081 3.274 3.489 4.134 4.609 4.516 4.576 4.616 4.646 5.491 4.934 4.809 5.654 4.774 4.799 4.819 4.826 4.851 5.129 4.824 4.844 7.079 12.661 13.886 11.681 11.539
4.253 4.166 4.481 4.001 4.083 4.126 7.136 9.373 9.228 9.031 17.871 17.643 17.473 17.438 17.366 17.308 17.273 14.861 15.121 14.138 14.266 14.153 14.511 16.481 17.303 18.443 17.233 16.803 15.733 4.273 4.266 4.293 4.361 4.293 4.328 4.418 4.423 4.508 4.598 4.513 4.618 4.501 4.363 4.323 4.293 4.266 4.246 24.103 26.796 27.848 28.971 30.043 30.073 29.858 29.041 27.938 27.251 26.821 3.718 3.711 3.706 3.731 3.813 4.433 4.281 4.226 4.403 2.121 1.861 11.163 22.503 31.388 33.398 33.493 33.483 33.448 35.271 34.461 17.068 5.453 14.353 21.098 10.648 18.191 10.893 20.761 21.733 13.343 27.776 26.766 28.686 23.611 27.096 27.066 16.908 5.803 12.176 16.741 13.213 12.988 13.083 13.088 6.103 9.891 28.568 34.988 33.603 33.418 33.353 33.398 33.523 30.031 13.583 4.728 4.153 3.773 3.743 2.218 1.868 2.683 3.461 4.279 4.716 4.746 4.761 5.016 5.161 4.776 4.756 4.744 4.814 4.794 4.791 4.814 4.851 4.834 5.026 4.926 6.046 4.704 4.701 12.638 8.261 10.661 5.768 6.216 4.729 4.733 4.548 4.457 4.337 4.333 4.5 4.688 4.628 5.32 -0.341 -0.146 -0.391 -0.258 -0.43 -0.214 -0.307 -0.343 -0.498 -0.499 -0.567 -0.47 -0.504 -0.699 -0.669 -0.438 -0.796 -0.755 -0.598 -1.086 -0.551 -0.972 -1.528 -1.402 -1.277 -1.187 -0.796 -0.766 -1.056 -1.621 -1.329 -1.946 -1.134 -0.986 -1.446 -1.736 -1.306 -1.241 -1.051 -0.909 -1.386 -1.301 -1.769 -0.701 -0.851 -1.139 -1.049 -1.069 -0.969 -1.101 -1.126 -0.896 -0.561 -0.396 -0.514 -0.841 -0.984 -0.774 -0.851 -0.744 -1.256 -0.784 -1.246 -1.139 -0.921 -0.679 -0.686 -0.709 -0.599 -1.314 -0.996 -0.901 -0.619 -1.064 -0.759 -0.559 -0.616 -0.711 -0.589 -0.949 -0.846 -0.865 -0.473 -0.925 -0.585 -0.746 -0.643 -0.51 -0.543 -0.503 -0.488 -0.435 -0.49 -0.404 -0.361 -0.328 -0.009 0.049 -0.588 -0.209 0.005 -0.194 3.228 3.434 3.379 -0.395 -0.526 -0.375 -0.515 -0.495 -0.637 -0.616 -0.409 -0.476 -0.451 -0.397 -0.405 -0.417 -0.328 -0.304 -0.329 -0.299 -0.396 -0.371 -0.262 -0.413 -0.36 -0.634 -0.677 -0.497 -0.433 5.472 5.399 6.064 5.455 5.428 5.406 5.437 5.406 5.416 5.396 5.366 5.351 5.759 5.851 6.004 6.084 6.174 5.816 5.864 5.966 5.994 6.066 6.139 6.349 6.621 7.004 7.239 7.474 7.529 7.541 7.524 7.499 7.476 7.486 7.451 7.434 7.416 7.359 7.276 7.219 7.161 7.014 6.856 6.519 6.184 5.894 5.569 5.339 5.254 5.059 5.111 5.076 5.041 4.971 4.936 4.921 5.234 4.826 5.139 5.611 3.961 3.616 4.666 3.391 3.606 4.361 4.141 3.404 3.364 3.416 3.624 4.516 5.091 4.581 3.354 6.336 6.974 4.116 7.816 9.744 9.729 9.734 9.391 5.874 4.174 4.414 4.234 6.264 5.266 7.776 7.744 7.719 7.709 7.689 7.699 7.706 7.721 9.266 10.319 10.289 10.229 10.209 10.204 10.194 10.179 17.996 37.214 43.091 25.801 44.809 47.626 47.626 47.656 47.591 47.584 47.571 47.601 47.614 45.241 47.544 43.071 26.064 34.881 25.296 8.854 6.434 3.421 2.051 2.306 2.074 1.994 2.014 2.806 6.466 6.454 4.816 3.499 3.676 3.894 4.911 4.696 4.664 4.611 4.596 4.584 5.369 5.314 4.954 4.754 4.776 5.514 4.874 4.846 4.826 4.851 4.869 12.804 12.819 8.249 11.519
4.046 4.561 5.598 4.923 4.081 4.081 5.538 9.491 9.281 9.101 15.376 17.598 17.528 17.476 19.013 17.373 17.251 16.488 14.178 14.113 14.098 14.071 14.048 15.898 17.231 18.313 17.528 16.176 15.873 4.236 4.216 4.281 4.351 4.296 4.366 4.451 4.388 4.506 4.603 4.516 4.491 4.471 4.431 4.421 4.293 4.256 4.313 22.518 26.768 27.658 28.788 29.756 29.918 29.816 29.291 28.046 27.026 26.193 4.213 3.708 3.713 3.781 3.841 3.908 3.986 4.103 4.433 2.338 1.651 9.403 21.588 30.891 33.376 33.468 33.491 33.563 35.071 34.631 7.983 8.393 7.653 19.628 26.901 14.726 8.611 13.333 11.026 24.276 29.638 24.826 26.623 27.103 28.341 27.326 13.291 14.588 12.481 9.808 13.343 19.478 14.321 23.953 5.726 9.833 33.988 34.681 33.768 33.401 33.368 33.363 33.276 28.081 13.503 4.721 3.913 3.758 3.751 3.746 1.873 2.716 3.544 4.359 4.729 4.754 4.774 4.764 4.794 4.769 4.741 4.751 4.781 4.776 4.784 4.831 4.831 4.839 4.871 4.824 6.664 7.454 5.071 11.596 15.015 8.192 8.867 4.882 4.967 4.873 4.529 4.432 4.333 4.348 4.506 4.636 5.285 0.048 -0.245 -0.376 -0.276 -0.271 -0.248 -0.435 -0.322 -0.44 -0.406 -0.651 -0.684 -0.73 -0.492 -0.546 -0.535 -0.425 -0.684 -0.604 -0.956 -0.859 -1.088 -0.851 -1.271 -1.21 -1.319 -1.679 -0.734 -0.823 -0.856 -0.929 -1.671 -1.134 -0.914 -1.594 -1.004 -1.241 -1.234 -1.166 -0.984 -1.141 -1.099 -1.384 -1.289 -0.454 -1.361 -1.089 -0.789 -1.031 -0.876 -0.964 -0.691 -0.981 -0.874 -0.989 -0.946 -0.611 -1.236 -0.999 -0.801 -0.756 -1.006 -0.861 -1.299 -1.071 -1.066 -0.571 -0.781 -1.094 -1.334 -0.766 -0.874 -1.106 -0.711 -0.794 -0.991 -1.029 -0.786 -0.706 -1.276 -0.774 -0.709 -1.056 -0.638 -0.806 -0.811 -0.704 -0.703 -0.567 -0.478 -0.48 -0.621 -0.432 -0.42 -0.391 -0.348 -0.335 -0.582 -0.614 -0.39 -0.15 -0.241 -0.168 3.09 3.904 3.759 -0.396 -0.344 -0.424 -0.446 -0.408 -0.366 -0.536 -0.491 -0.642 -0.574 -0.436 -0.458 -0.319 -0.377 -0.262 -0.344 -0.361 -0.329 -0.362 -0.334 -0.381 -0.501 -0.523 -0.53 -0.494 -0.062 5.491 5.399 5.478 5.382 5.414 5.395 5.409 5.409 5.407 5.402 5.441 5.426 5.804 5.951 6.079 6.171 6.226 5.859 5.959 5.954 6.019 6.121 6.206 6.381 6.734 7.024 7.221 7.406 7.509 7.564 7.586 7.544 7.529 7.494 7.476 7.549 7.554 7.549 7.541 7.514 7.481 7.324 7.049 6.711 6.354 6.119 5.844 5.601 5.419 5.351 5.264 5.221 5.201 5.151 5.126 5.076 5.021 4.924 4.876 4.901 4.416 4.849 5.581 5.156 3.629 3.511 3.426 3.399 3.421 3.479 3.574 3.721 3.806 3.984 3.894 6.266 4.831 4.086 4.051 4.519 8.536 9.724 9.716 9.681 9.151 5.104 4.231 4.369 7.846 7.744 7.734 7.716 7.776 7.719 7.689 7.691 7.701 7.694 7.774 10.001 10.296 10.271 10.284 10.229 10.204 10.189 10.161 22.534 43.354 26.189 43.086 31.449 47.609 47.601 47.601 47.569 47.596 47.609 47.646 47.649 47.586 45.954 28.911 31.404 33.656 23.411 6.536 6.176 2.964 2.069 1.979 2.026 6.449 6.541 6.506 6.466 6.466 4.529 3.969 4.199 4.389 4.826 4.606 4.546 4.544 4.624 5.421 4.994 4.706 4.821 4.839 4.811 4.836 4.849 4.851 4.881 4.901 4.869 4.846 5.279
4.158 4.121 4.441 4.401 4.071 4.091 4.106 9.436 9.293 9.141 14.548 17.623 17.533 17.481 17.391 17.311 17.238 17.113 14.056 14.451 13.998 13.971 13.931 15.456 16.671 19.561 18.751 16.501 15.656 4.253 4.201 4.288 4.306 4.286 4.348 4.361 4.466 4.511 4.561 4.566 4.563 4.508 4.433 7.691 8.816 4.401 4.331 22.198 26.531 27.488 28.523 29.573 29.781 29.838 29.526 28.343 27.318 26.113 13.513 3.731 3.723 3.771 3.811 3.918 4.031 4.181 4.373 2.543 1.348 7.341 17.931 30.916 33.421 33.436 33.453 33.446 34.968 34.393 16.638 5.988 7.636 10.536 15.676 15.178 7.651 14.056 13.663 17.056 27.551 25.961 31.146 27.343 26.183 29.243 19.886 14.881 11.806 8.031 10.078 6.271 23.703 5.721 5.708 16.566 34.336 34.991 33.901 33.393 33.361 33.361 32.076 26.148 12.821 4.691 4.106 3.753 3.741 3.668 1.886 2.678 3.621 4.351 4.774 4.751 4.776 4.809 4.771 4.789 4.771 4.766 4.786 4.746 4.789 4.801 4.824 4.776 4.811 4.804 4.786 7.271 5.186 6.976 8.525 6.226 4.834 4.595 4.776 4.566 4.487 4.362 4.329 4.576 4.483 4.553 5.706 -0.394 -0.284 -0.336 -0.323 -0.241 -0.235 -0.325 -0.369 -0.5 -0.331 -0.522 -0.533 -0.465 -0.363 -0.516 -0.54 -0.567 -0.586 -0.74 -0.551 -0.508 -0.668 -1.112 -1.138 -1.329 -1.227 -1.132 -0.956 -1.461 -0.579 -1.279 -1.134 -0.726 -1.141 -1.161 -0.544 -1.251 -1.019 -0.696 -1.209 -1.124 -1.091 -0.686 -0.986 -0.971 -0.951 -1.041 -0.984 -0.716 -0.901 -0.966 -0.859 -0.599 -0.786 -1.126 -0.754 -0.821 -0.641 -1.039 -1.311 -0.851 -0.719 -0.984 -0.789 -0.921 -1.176 -0.601 -1.004 -0.429 -0.716 -0.894 -0.731 -1.156 -0.514 -0.639 -0.681 -0.636 -0.804 -0.794 -1.146 -0.761 -1.101 -0.584 -0.799 -0.672 -0.647 -0.834 -0.564 -0.708 -0.52 -0.497 -0.436 -0.455 -0.361 -0.392 -0.398 -0.501 -0.334 -0.408 -0.42 -0.514 -0.593 -0.562 0.569 0.941 1.079 -0.268 -0.495 -0.346 -0.466 -0.437 -0.434 -0.479 -0.501 -0.44 -0.438 -0.328 -0.485 -0.344 -0.403 -0.369 -0.314 -0.344 -0.324 -0.33 -0.33 -0.394 -0.44 -0.435 -0.534 -0.506 1.488 5.377 5.362 5.382 5.358 5.364 5.388 5.399 5.418 5.41 5.394 5.446 5.666 5.866 5.979 6.159 6.291 6.339 6.046 6.021 6.029 6.026 6.129 6.259 6.419 6.714 6.999 7.141 7.331 7.454 7.524 7.574 7.574 7.534 7.516 7.499 7.529 7.561 7.546 7.539 7.576 7.501 7.339 7.116 6.826 6.509 6.276 5.979 5.721 5.534 5.429 5.394 5.394 5.341 5.331 5.321 5.324 5.241 5.144 5.039 4.971 4.971 5.734 4.821 6.341 6.399 6.544 4.096 4.381 3.526 3.564 3.679 3.749 3.786 3.884 4.024 4.836 4.014 4.059 4.046 4.056 4.071 5.091 8.034 9.694 9.639 9.584 8.114 7.104 7.741 7.736 7.719 7.731 7.944 7.791 7.701 7.694 7.696 7.694 7.714 7.744 7.959 10.189 10.304 10.271 10.239 10.226 10.189 10.179 10.169 30.899 37.171 39.779 37.029 43.351 47.606 47.629 47.576 47.606 47.634 47.584 47.589 47.556 47.599 45.949 28.629 43.064 39.371 19.516 6.624 5.091 2.456 2.386 6.456 6.631 6.484 6.454 6.486 6.444 6.466 4.791 4.546 4.544 4.766 4.544 4.589 4.574 5.609 5.914 4.634 5.649 5.479 4.811 4.836 4.864 4.869 4.926 4.839 4.809 4.774 5.749
5.093 4.288 6.891 5.061 4.096 4.121 4.078 9.516 9.336 9.163 9.906 17.663 17.548 17.501 17.346 17.301 17.263 17.233 13.988 13.971 12.371 9.841 8.748 14.401 16.838 17.771 17.996 16.818 15.601 4.153 4.243 4.313 4.336 4.351 4.366 4.408 4.436 4.526 4.568 4.586 4.523 4.526 4.476 9.381 5.893 4.371 4.316 7.321 26.188 27.231 28.276 29.331 29.791 29.873 29.696 28.593 27.493 26.308 12.926 3.718 3.731 3.801 3.856 4.503 4.081 4.156 4.403 2.613 1.111 6.718 16.046 31.096 33.453 33.428 33.458 33.433 34.908 34.556 20.633 18.453 12.078 22.778 18.288 15.581 9.588 15.441 12.241 23.893 30.448 26.861 24.611 25.733 26.566 21.501 15.371 11.668 16.563 7.663 10.158 19.886 13.073 10.501 9.716 18.708 34.371 34.723 33.346 33.401 33.408 33.341 32.061 23.536 10.533 4.728 4.688 4.706 4.736 4.726 4.666 4.546 4.509 4.504 4.756 4.819 4.799 4.794 4.786 4.811 4.774 4.776 4.756 4.741 4.791 4.789 4.791 4.819 4.824 4.789 4.891 7.629 4.728 4.978 6.069 7.407 4.597 4.593 4.752 4.562 4.506 5.334 4.545 4.319 5.572 4.562 7.219 -0.264 -0.316 -0.266 -0.383 -0.395 -0.234 -0.294 -0.342 -0.508 -0.419 -0.545 -0.558 -0.388 -0.332 -0.467 -0.431 -0.373 -0.57 -0.641 -0.542 -0.878 -0.653 -0.85 -1.294 -1.122 -1.173 -1.416 -0.629 -1.348 -0.964 -0.856 -1.154 -1.056 -0.754 -0.929 -0.809 -1.501 -1.226 -0.841 -1.269 -1.236 -1.019 -1.084 -1.204 -0.979 -1.174 -1.131 -0.934 -0.656 -0.709 -0.681 -0.901 -1.361 -1.069 -0.981 -1.191 -1.024 -1.019 -0.994 -0.944 -0.836 -0.821 -0.689 -0.789 -0.846 -1.001 -1.034 -1.129 -0.594 -0.891 -0.799 -0.684 -1.016 -0.749 -0.701 -0.864 -0.636 -1.231 -0.699 -0.834 -0.611 -0.646 -0.797 -0.995 -0.559 -0.86 -0.422 -0.724 -0.5 -0.545 -0.452 -0.385 -0.37 -0.275 -0.437 -0.285 -0.364 -0.475 -0.358 -0.585 -0.535 -0.529 -0.496 -0.319 1.475 1.306 -0.347 -0.452 -0.323 -0.419 -0.543 -0.493 -0.499 -0.528 -0.413 -0.531 -0.435 -0.398 -0.409 -0.358 -0.318 -0.33 -0.338 -0.438 -0.459 -0.402 -0.387 -0.463 -0.42 -0.517 -0.507 3.628 5.348 5.343 5.564 5.305 5.339 5.374 5.365 5.382 5.379 5.387 5.346 5.729 5.921 6.061 6.184 6.366 6.401 6.061 6.141 6.144 6.074 6.119 6.184 6.311 6.634 6.866 7.049 7.154 7.316 7.404 7.451 7.519 7.514 7.511 7.486 7.524 7.519 7.494 7.471 7.449 7.319 7.169 6.961 6.744 6.529 6.291 6.031 5.824 5.616 5.526 5.531 5.494 5.431 5.499 5.494 5.474 5.521 5.411 5.274 5.194 5.111 5.119 4.964 5.036 6.269 6.751 5.501 3.844 4.779 4.291 3.874 3.804 4.074 3.949 3.966 3.969 3.969 4.024 4.074 4.069 4.116 4.059 4.121 7.134 9.616 9.554 9.536 9.541 9.454 7.949 7.696 7.704 7.684 7.699 7.716 7.726 7.746 7.724 7.691 7.719 7.726 7.701 7.941 10.411 10.291 10.279 10.249 10.161 10.194 10.209 10.141 34.266 43.084 39.576 32.271 46.634 47.611 47.606 47.606 47.599 47.571 47.586 47.629 47.594 47.541 44.246 43.046 28.034 38.781 16.536 6.469 6.439 6.541 6.426 6.444 6.366 6.504 6.349 7.096 4.564 4.854 4.544 4.569 4.526 4.491 4.501 5.434 4.616 5.406 5.856 5.096 4.781 4.809 4.886 4.909 4.866 4.791 4.776 4.751 4.899
4.053 4.166 4.223 4.156 4.091 4.108 4.053 8.941 9.393 9.206 9.046 17.766 17.548 17.486 17.418 16.813 16.196 10.948 9.038 7.266 4.888 4.706 4.046 9.091 15.993 17.171 17.063 16.561 15.801 4.581 4.236 4.331 4.341 5.583 5.033 4.398 4.513 4.513 4.568 4.553 4.586 4.538 4.471 15.391 13.186 5.376 4.536 6.406 26.428 27.208 28.051 29.206 29.806 29.898 30.086 28.741 27.683 26.596 22.636 3.696 3.746 3.838 4.063 8.728 8.441 4.148 4.403 2.876 0.926 5.846 16.271 30.771 33.446 33.463 33.441 33.458 34.308 34.618 18.521 8.871 13.908 7.893 13.373 10.823 10.056 11.696 12.436 11.796 26.448 26.298 26.026 24.318 28.133 27.148 11.626 8.226 11.506 20.123 21.951 16.646 11.128 5.693 7.493 12.648 34.268 34.578 33.361 33.376 33.431 33.343 30.528 19.548 6.821 4.713 4.711 4.746 4.781 4.766 4.758 4.756 4.796 4.841 4.824 4.824 4.796 4.806 4.784 4.846 4.796 4.796 4.799 4.799 4.836 4.844 4.766 4.794 4.811 4.806 5.211 4.681 4.599 4.499 4.456 4.704 4.626 4.832 4.889 4.592 4.715 9.062 4.999 4.391 6.82 4.589 8.933 -0.496 -0.284 -0.141 -0.304 -0.251 -0.36 -0.328 -0.216 -0.536 -0.534 -0.392 -0.438 -0.363 -0.338 -0.196 -0.322 -0.523 -0.551 -0.439 -0.519 -0.958 -0.928 -1.144 -1.266 -1.178 -1.205 -0.792 -1.054 -1.54 -1.199 -0.826 -0.804 -1.241 -1.261 -0.819 -1.349 -1.959 -0.689 -1.266 -1.006 -0.949 -1.124 -1.324 -0.966 -0.731 -0.876 -0.891 -1.174 -0.964 -0.724 -0.771 -0.786 -0.761 -0.921 -1.254 -0.621 -1.156 -1.436 -0.816 -0.656 -0.691 -1.229 -0.789 -0.894 -1.211 -1.206 -1.076 -0.889 -0.824 -1.166 -0.734 -0.889 -0.686 -1.079 -0.864 -1.021 -0.954 -0.946 -0.771 -0.629 -0.836 -0.604 -0.663 -0.57 -0.703 -0.623 -0.476 -0.515 -0.42 -0.543 -0.465 -0.404 -0.38 -0.391 -0.376 -0.348 -0.398 -0.447 -0.479 -0.57 -0.528 -0.494 -0.361 -0.338 -0.136 -0.35 -0.422 -0.347 -0.525 -0.372 -0.371 -0.397 -0.505 -0.403 -0.465 -0.438 -0.624 -0.418 -0.377 -0.351 -0.37 -0.368 -0.353 -0.37 -0.277 -0.31 -0.382 -0.336 -0.454 -0.517 -0.413 5.236 5.316 5.305 5.284 5.316 5.371 5.389 5.377 5.354 5.372 5.394 5.334 5.781 5.954 6.109 6.204 6.394 6.429 6.114 6.149 6.191 6.144 6.091 6.109 6.181 6.416 6.681 6.874 7.026 7.189 7.274 7.346 7.421 7.434 7.471 7.436 7.434 7.416 7.359 7.294 7.181 7.086 6.876 6.719 6.529 6.376 6.141 5.966 5.811 5.661 5.596 5.551 5.574 5.541 5.556 5.534 5.531 5.529 5.474 5.454 5.371 5.329 5.209 5.281 5.341 5.051 5.004 5.294 5.034 5.411 4.021 4.234 4.416 4.204 4.059 4.016 3.969 3.959 4.054 4.064 4.086 4.119 4.064 4.134 4.139 4.319 6.331 9.526 9.504 9.551 9.549 9.216 7.719 7.699 7.679 7.694 7.716 7.751 7.916 7.716 7.689 7.674 7.721 7.724 7.729 8.459 10.356 10.284 10.266 10.236 10.206 10.184 10.329 12.499 39.819 35.184 40.734 43.846 46.749 47.614 47.609 47.551 47.594 47.631 47.621 47.609 45.676 47.066 43.819 35.581 39.431 42.374 7.334 6.484 6.479 6.439 6.479 6.646 6.454 5.381 4.861 4.729 4.521 4.541 4.501 4.539 4.494 4.501 4.659 5.801 4.839 5.181 5.986 4.791 4.824 4.819 4.771 4.646 4.696 4.819 4.796
3.971 4.018 4.083 4.088 4.066 4.108 4.048 7.863 9.431 10.221 13.146 18.381 18.103 15.583 12.708 5.326 4.138 7.406 7.481 6.623 4.051 4.128 4.088 7.336 15.653 15.848 16.078 15.458 14.123 11.951 4.268 4.273 4.376 5.701 4.413 4.356 4.443 4.518 4.558 4.623 4.581 4.601 4.491 5.906 17.743 14.306 4.331 4.396 19.553 26.858 27.841 28.953 29.821 30.051 29.728 29.041 27.918 26.863 24.711 3.811 3.796 3.801 3.848 6.553 4.076 4.121 4.408 2.741 0.683 4.048 16.328 30.536 33.466 33.483 33.491 33.781 33.921 34.126 24.558 12.181 17.028 16.321 13.561 15.208 7.808 23.888 21.668 31.488 25.176 32.186 25.023 26.161 26.481 28.483 12.268 16.993 13.773 10.708 7.448 28.126 16.191 15.013 16.033 14.216 34.148 34.406 33.413 33.383 33.366 33.333 30.173 13.666 6.923 4.603 4.583 4.666 4.678 4.741 4.756 4.816 4.829 4.869 4.841 4.876 4.791 4.796 4.809 4.846 4.711 4.769 4.789 4.806 4.746 4.821 4.799 4.781 4.784 4.769 5.619 4.639 4.571 4.353 4.474 4.561 4.924 4.68 4.757 4.537 6.32 7.253 4.587 8.425 4.749 4.775 7.72 -0.081 -0.241 -0.271 -0.259 -0.179 -0.276 -0.323 -0.294 -0.333 0.455 0.149 0.646 -0.363 -0.316 -0.346 -0.36 -0.493 -0.468 -0.61 -0.744 -0.786 -0.865 -0.84 -1.005 -0.581 -0.862 -0.863 -1.316 -0.761 -0.849 -1.321 -1.071 -1.094 -0.984 -1.511 -0.626 -1.469 -0.764 -1.261 -1.184 -0.914 -1.161 -1.199 -0.709 -0.689 -1.159 -0.721 -0.621 -1.191 -1.039 -1.076 -1.111 -0.731 -0.904 -0.991 -0.764 -0.779 -0.896 -1.329 -0.761 -0.914 -0.689 -0.766 -0.656 -0.874 -0.594 -0.554 -0.679 -1.316 -0.809 -1.001 -0.801 -1.401 -1.164 -1.021 -0.999 -0.796 -0.829 -0.629 -0.764 -0.701 -0.771 -0.749 -0.461 -0.485 -0.484 -0.531 -0.497 -0.738 -0.458 -0.497 -0.472 -0.451 -0.357 -0.306 -0.404 -0.326 -0.326 -0.253 -0.515 -0.426 -0.366 -0.321 -0.408 -0.299 -0.402 -0.443 -0.313 -0.372 -0.373 -0.443 -0.435 -0.443 -0.423 -0.593 -0.343 -0.657 -0.506 -0.43 -0.461 -0.427 -0.381 -0.369 -0.382 -0.406 -0.335 -0.327 -0.269 -0.663 -0.508 -0.423 5.478 5.304 5.298 5.269 5.292 5.374 5.425 5.452 5.374 5.383 5.33 5.539 5.864 6.034 6.159 6.271 6.441 6.294 6.126 6.134 6.206 6.154 6.129 6.091 6.081 6.166 6.381 6.659 6.831 6.969 7.099 7.176 7.189 7.286 7.331 7.296 7.264 7.221 7.151 7.049 6.906 6.721 6.584 6.401 6.284 6.181 5.919 5.806 5.646 5.626 5.634 5.599 5.551 5.526 5.549 5.496 5.544 5.534 5.521 5.449 5.476 5.451 5.519 5.391 5.371 5.319 5.241 5.129 5.049 4.664 5.199 5.484 4.564 4.189 4.196 4.074 3.979 4.004 4.061 4.096 4.106 4.071 4.106 4.144 4.671 4.156 4.284 6.361 9.621 9.529 9.529 9.519 9.554 9.026 7.711 7.684 7.689 7.706 7.916 7.731 7.731 7.674 7.706 7.666 7.721 7.729 7.774 9.154 10.344 10.309 10.236 10.236 10.219 10.184 10.189 18.201 42.936 40.286 43.059 43.619 46.906 47.604 47.601 47.651 47.611 47.579 47.569 47.576 47.561 38.431 31.506 28.336 43.074 25.144 6.531 6.459 6.566 6.451 6.494 2.746 4.586 4.571 4.569 4.526 4.559 4.521 4.524 4.529 4.489 4.564 4.651 6.029 5.009 4.749 4.751 4.744 4.639 4.664 4.726 5.216 5.051
4.041 4.063 4.073 4.116 4.116 6.093 8.353 14.958 16.471 18.161 18.411 18.558 18.836 15.138 12.233 4.641 5.621 4.426 4.063 4.066 4.101 4.156 5.046 7.358 15.031 12.058 8.106 8.528 8.108 7.948 4.301 4.276 4.371 4.338 9.676 4.373 4.453 4.521 4.566 4.641 4.611 4.578 4.506 7.528 6.923 4.543 4.323 4.361 13.256 26.548 27.721 28.741 29.166 28.878 28.763 28.563 28.051 27.116 26.008 3.928 3.691 3.803 3.878 3.943 4.038 4.133 4.396 3.286 0.436 2.848 15.648 30.316 33.473 33.471 33.486 33.966 34.191 34.623 12.848 8.531 12.861 12.421 10.556 20.811 9.083 15.363 9.101 15.781 28.423 27.846 26.838 23.896 25.418 25.061 19.316 12.956 5.873 13.211 20.786 20.586 10.283 10.951 7.553 18.126 34.338 33.808 33.376 33.391 33.371 33.363 30.183 13.636 5.713 4.543 4.558 4.626 4.671 4.746 4.733 4.718 4.731 4.849 4.791 4.776 4.791 4.784 4.801 4.811 4.711 4.736 4.739 4.774 4.771 4.769 4.801 4.779 4.841 4.799 5.001 4.639 4.56 4.381 4.496 4.52 4.74 4.707 4.657 4.538 4.464 5.791 4.295 5.986 4.778 4.736 4.586 -0.326 -0.316 -0.279 -0.336 -0.351 -0.483 -0.378 -0.501 -0.451 1.206 1.581 1.679 -0.398 -0.323 -0.328 -0.425 -0.467 -0.56 -0.663 -0.514 -0.965 -0.801 -0.872 -1.144 -0.616 -1.028 -0.652 -1.02 -0.727 -0.924 -0.821 -1.081 -1.189 -1.199 -1.124 -1.269 -0.936 -0.989 -0.956 -1.126 -0.871 -1.274 -1.329 -1.209 -1.034 -1.181 -0.854 -1.069 -1.166 -0.941 -0.861 -0.664 -0.856 -1.339 -0.709 -1.149 -1.089 -1.054 -0.824 -0.841 -1.234 -1.326 -0.729 -1.071 -1.229 -0.701 -0.764 -1.189 -0.786 -1.014 -0.786 -1.009 -1.191 -1.204 -1.174 -1.036 -1.166 -0.624 -0.901 -0.846 -1.379 -0.984 -0.987 -0.567 -0.897 -0.873 -0.46 -0.635 -0.805 -0.331 -0.545 -0.461 -0.398 -0.386 -0.398 -0.399 -0.311 -0.356 -0.292 -0.49 -0.4 -0.406 -0.388 -0.352 -0.234 -0.215 -0.439 -0.348 -0.352 -0.406 -0.503 -0.424 -0.401 -0.493 -0.528 -0.456 -0.418 -0.423 -0.419 -0.41 -0.396 -0.377 -0.418 -0.376 -0.455 -0.351 -0.238 -0.319 -0.43 -0.484 0.675 5.325 5.329 5.321 5.295 5.319 5.37 5.39 5.426 5.379 5.346 5.349 5.709 5.904 6.089 6.209 6.181 5.976 6.116 6.156 6.179 6.206 6.211 6.166 6.154 6.099 6.101 6.169 6.386 6.591 6.749 6.844 6.994 7.066 7.126 7.156 7.091 7.086 7.019 6.921 6.796 6.614 6.444 6.294 6.161 6.106 5.969 5.789 5.681 5.634 5.564 5.561 5.364 5.226 5.156 5.156 5.136 5.116 5.119 5.099 5.141 5.301 5.489 5.479 5.484 5.509 5.521 5.454 5.396 5.321 5.339 5.164 4.704 4.351 4.354 4.536 4.139 4.011 4.019 4.101 4.161 4.061 4.059 4.074 4.066 5.099 4.244 4.336 4.304 4.349 6.769 9.541 9.556 9.529 9.524 9.544 8.824 7.719 7.729 7.726 7.741 7.966 7.776 7.721 7.709 7.711 7.756 7.746 7.731 7.714 9.829 10.311 10.279 10.269 10.219 10.191 10.159 10.194 23.724 37.199 43.069 33.244 44.941 47.606 47.611 47.594 47.476 47.571 47.599 47.629 47.594 47.606 46.824 41.656 43.041 43.101 26.619 8.396 6.471 3.894 3.661 4.551 4.539 4.581 4.551 4.569 4.526 4.524 4.489 4.489 4.559 4.654 5.294 4.734 5.244 4.726 4.636 4.564 4.661 4.869 5.119 4.834
4.043 4.041 4.031 4.088 4.076 11.046 18.461 18.648 18.803 19.033 19.218 19.346 19.583 18.591 11.346 5.176 4.071 4.243 5.596 6.548 8.158 8.036 8.013 7.998 8.011 8.066 7.963 7.703 7.261 8.366 7.218 4.298 10.271 5.003 4.461 8.216 4.458 4.583 4.563 4.598 4.666 4.563 4.586 4.493 4.416 4.466 4.396 4.403 9.783 26.236 27.461 28.253 28.036 27.843 27.658 27.393 27.273 27.013 25.998 5.066 3.738 3.788 3.816 3.936 4.036 4.138 4.378 3.671 0.628 2.206 14.503 30.251 33.463 33.448 33.466 33.898 34.876 34.086 27.796 14.396 18.766 16.551 11.201 9.366 15.426 25.683 17.628 14.821 25.988 32.958 27.461 26.618 26.498 32.396 12.366 9.306 13.153 7.693 7.111 12.096 17.363 5.731 11.913 26.073 34.701 34.528 33.388 33.403 33.378 33.366 30.216 13.683 4.843 4.526 4.561 4.636 4.683 4.776 4.748 4.753 4.789 4.721 4.804 4.829 4.804 4.804 4.809 4.841 4.749 4.724 4.714 4.769 4.789 4.789 4.751 4.799 4.814 4.796 5.026 4.644 4.584 4.395 4.477 4.559 5.029 4.777 4.597 4.539 4.412 4.393 4.342 4.995 4.525 5.074 0.266 -0.271 -0.221 -0.314 -0.189 -0.364 -0.403 -0.184 -0.234 -0.295 2.155 1.786 1.832 -0.328 -0.324 -0.336 -0.648 -0.437 -0.652 -0.337 -0.731 -0.783 -0.637 -1.181 -0.958 -0.613 -1.016 -0.708 -0.982 -0.913 -0.969 -1.089 -1.056 -1.159 -0.999 -0.861 -1.621 -0.884 -1.099 -0.619 -0.969 -0.921 -1.009 -1.114 -0.616 -0.779 -0.874 -0.869 -1.201 -0.939 -1.026 -0.626 -0.871 -0.909 -0.946 -0.629 -0.554 -1.384 -0.764 -1.374 -1.009 -1.034 -1.116 -1.166 -0.694 -0.569 -0.909 -0.876 -0.609 -1.126 -1.376 -1.146 -0.906 -1.221 -1.056 -0.666 -0.659 -0.621 -0.621 -0.594 -0.634 -1.029 -1.214 -0.949 -0.868 -0.676 -0.61 -0.527 -0.512 -0.477 -0.468 -0.381 -0.66 -0.428 -0.362 -0.42 -0.217 -0.322 -0.379 -0.319 -0.373 -0.32 -0.249 -0.321 -0.398 -0.355 -0.244 -0.359 -0.488 -0.39 -0.421 -0.449 -0.443 -0.438 -0.492 -0.494 -0.434 -0.366 -0.519 -0.454 -0.42 -0.518 -0.377 -0.34 -0.4 -0.342 -0.364 -0.246 -0.336 -0.471 -0.395 2.847 5.348 5.329 5.322 5.318 5.355 5.373 5.384 5.42 5.375 5.314 5.287 5.774 5.946 6.096 6.211 6.364 6.351 6.126 6.151 6.161 6.206 6.164 6.176 6.176 6.114 6.061 6.139 6.186 6.324 6.499 6.689 6.804 6.899 6.879 6.951 6.921 6.879 6.841 6.729 6.621 6.374 6.219 6.116 6.049 5.921 5.934 5.749 5.604 5.551 5.206 5.156 5.179 5.184 5.191 5.189 5.176 5.356 5.171 5.149 5.159 5.179 5.131 5.319 5.519 5.554 5.604 5.631 5.641 5.584 5.551 5.506 5.596 4.931 4.656 4.441 4.084 3.949 4.029 4.031 4.194 4.116 4.146 4.161 4.106 4.221 4.241 4.344 6.834 7.516 4.829 7.001 8.884 9.539 9.549 9.541 9.564 9.566 8.896 7.734 7.664 7.714 7.716 7.736 7.721 7.701 7.709 7.719 7.724 7.706 7.766 7.934 10.396 10.276 10.284 10.259 10.219 10.239 10.329 10.141 31.656 43.194 32.776 41.141 43.149 47.571 47.561 47.604 47.584 47.601 47.596 47.579 47.551 47.556 45.371 32.201 43.054 43.256 16.744 2.771 2.754 3.864 4.619 4.611 4.561 4.561 4.546 4.544 4.501 4.519 4.504 4.571 4.766 5.906 4.889 4.586 4.594 4.724 4.706 4.814 4.804 4.829
3.991 3.991 4.021 4.068 4.071 4.981 19.271 19.453 19.631 19.886 20.138 20.216 20.436 20.556 4.061 5.311 5.538 8.056 8.018 7.998 7.986 7.996 7.866 7.693 7.213 6.851 7.153 8.911 10.921 11.043 5.738 4.303 8.098 4.373 5.673 5.071 4.443 4.521 4.581 4.601 4.633 4.661 4.618 4.448 4.438 4.378 4.381 4.366 5.733 25.941 27.208 27.183 26.991 26.798 26.578 26.331 26.353 24.401 22.573 8.093 4.441 3.741 3.728 3.791 3.943 4.108 4.381 4.458 -0.009 1.063 13.801 30.273 33.413 33.433 33.461 33.556 34.426 34.011 25.166 21.771 18.323 11.638 7.766 23.366 17.876 8.668 16.051 16.103 28.368 26.053 23.973 23.813 32.348 29.556 22.701 17.506 6.766 13.023 16.331 8.901 21.238 19.971 14.791 32.071 34.893 35.283 33.356 33.388 33.371 33.386 30.231 13.736 4.656 4.556 4.543 4.656 4.663 4.756 4.781 4.806 4.774 4.801 4.769 4.746 4.784 4.779 4.806 4.816 4.806 4.761 4.726 4.739 4.769 4.766 4.739 4.846 4.844 4.774 4.659 4.616 4.548 7.344 4.619 4.795 4.844 4.778 4.648 4.581 4.453 4.344 4.431 4.482 3.675 4.819 -0.121 -0.259 -0.251 -0.454 -0.359 -0.219 -0.327 -0.33 -0.439 -0.342 2.708 1.93 1.819 -0.248 -0.327 -0.496 -0.55 -0.612 -0.708 -0.545 -0.521 -1.009 -0.447 -0.661 -0.658 -0.593 -0.795 -1.074 -1.132 -0.872 -0.851 -1.031 -0.594 -1.074 -1.149 -1.556 -1.334 -0.996 -0.739 -0.771 -1.414 -1.069 -0.906 -0.976 -0.779 -0.784 -0.961 -0.944 -0.884 -0.704 -0.891 -0.966 -1.041 -0.959 -0.849 -0.784 -0.924 -1.121 -0.751 -0.451 -1.131 -1.204 -1.214 -0.899 -0.679 -0.704 -0.669 -1.044 -1.224 -1.861 -1.431 -0.786 -0.924 -0.879 -0.956 -1.136 -0.769 -1.024 -1.089 -0.689 -0.761 -0.871 -0.944 -0.775 -0.662 -0.828 -0.635 -0.472 -0.393 -0.502 -0.616 -0.382 -0.401 -0.434 -0.562 -0.594 -0.541 -0.324 -0.303 -0.334 -0.251 -0.369 -0.201 -0.264 -0.319 -0.36 -0.327 -0.326 -0.381 -0.492 -0.418 -0.468 -0.433 -0.418 -0.567 -0.465 -0.451 -0.529 -0.405 -0.453 -0.441 -0.379 -0.523 -0.357 -0.322 -0.317 -0.274 -0.194 -0.317 -0.514 -0.495 5.184 5.352 5.34 5.366 5.349 5.382 5.386 5.41 5.401 5.364 5.344 5.302 5.814 5.996 6.166 6.299 6.424 6.029 6.089 6.166 6.151 6.139 6.144 6.134 6.149 6.166 6.161 6.114 6.104 6.139 6.246 6.456 6.579 6.659 6.721 6.751 6.739 6.724 6.651 6.501 6.376 6.239 6.134 6.034 5.959 5.849 5.721 5.659 5.256 5.241 5.189 5.191 5.209 5.189 5.154 5.166 5.199 5.229 5.179 5.179 5.176 5.169 5.144 5.451 5.311 5.556 5.664 5.771 5.836 5.749 5.769 5.624 5.469 4.926 4.604 5.036 4.096 3.991 4.064 4.106 4.131 4.099 4.161 4.026 4.056 4.171 4.321 4.266 9.484 9.309 9.476 3.219 4.626 7.784 8.759 9.536 9.549 9.531 9.569 9.569 7.936 7.721 7.706 7.774 7.724 7.726 7.736 7.734 7.689 7.706 7.739 7.706 7.721 7.961 10.229 10.269 10.244 10.246 10.196 10.204 10.194 10.124 32.219 24.584 43.049 36.869 47.224 47.596 47.609 47.594 47.599 47.546 47.549 47.556 47.536 46.961 45.926 26.679 39.524 41.331 12.301 2.941 3.204 3.209 4.821 4.574 4.631 4.571 4.541 4.551 4.564 4.619 4.616 4.599 4.599 4.489 4.581 4.716 4.716 4.819 4.764 4.791
3.981 4.023 4.033 4.041 4.081 4.038 18.108 20.326 20.413 20.766 20.721 20.091 19.871 19.868 5.316 5.718 6.911 8.356 7.796 7.446 7.083 7.436 7.331 9.318 10.476 10.993 11.226 11.536 11.796 11.433 7.778 4.391 6.766 6.121 4.438 8.638 4.473 4.538 4.568 4.598 4.651 4.683 4.603 4.568 4.483 4.391 4.411 4.381 4.441 24.983 26.203 26.328 25.638 25.271 25.081 23.766 23.223 22.768 20.628 13.936 11.343 8.063 3.821 3.728 3.826 4.018 4.338 4.753 2.091 0.616 13.646 30.231 33.431 33.438 33.433 34.081 34.986 34.178 22.503 26.276 9.686 7.771 21.986 17.608 17.748 18.896 13.151 10.633 25.163 26.271 25.631 24.833 29.573 25.853 21.441 15.041 12.503 13.456 8.533 8.856 5.771 9.048 14.831 32.791 34.341 35.366 33.436 33.423 33.338 33.616 30.001 13.286 4.666 4.623 4.608 4.646 4.748 4.773 4.806 4.766 4.771 4.829 4.829 4.876 4.866 4.869 4.851 4.826 4.754 4.789 4.769 4.681 4.729 4.736 4.744 4.774 4.819 4.891 4.681 5.466 7.957 4.867 6.308 4.51 4.587 4.761 4.582 4.492 5.656 4.686 4.443 4.532 4.541 4.953 1.526 -0.321 -0.336 -0.176 -0.239 -0.281 -0.225 -0.379 -0.375 -0.341 2.183 1.962 1.873 -0.018 -0.583 -0.555 -0.643 -0.79 -0.738 -0.813 -0.866 -0.696 -0.565 -0.819 -0.714 -0.505 -0.714 -0.847 -0.732 -1.094 -1.134 -1.459 -1.009 -1.189 -1.239 -1.364 -1.186 -0.601 -1.376 -0.871 -0.726 -1.184 -1.169 -1.501 -1.016 -1.186 -1.289 -1.074 -1.036 -0.836 -0.804 -0.609 -1.279 -0.946 -1.161 -1.471 -0.784 -0.531 -0.704 -1.016 -1.024 -1.254 -1.036 -1.091 -1.286 -0.761 -0.731 -0.909 -1.016 -1.456 -1.224 -1.044 -0.741 -1.329 -0.614 -1.024 -0.626 -0.829 -1.306 -0.926 -0.589 -0.554 -1.124 -1.359 -1.049 -0.748 -0.583 -0.525 -0.54 -0.57 -0.469 -0.612 -0.463 -0.494 -0.412 -0.655 -0.508 -0.548 -0.446 -0.319 -0.413 -0.36 -0.344 -0.496 -0.368 -0.35 -0.277 -0.325 -0.581 -0.502 -0.605 -0.436 -0.475 -0.56 -0.507 -0.486 -0.565 -0.469 -0.457 -0.462 -0.467 -0.425 -0.37 -0.374 -0.363 -0.283 -0.343 -0.334 -0.441 -0.508 -0.529 5.423 5.352 5.344 5.335 5.345 5.368 5.386 5.415 5.406 5.37 5.348 5.494 5.844 6.036 6.171 6.316 6.456 6.056 6.114 6.136 6.119 6.094 6.129 6.079 6.084 6.109 6.164 6.154 6.129 6.096 6.119 6.206 6.271 6.421 6.504 6.551 6.574 6.616 6.519 6.396 6.259 6.114 6.026 5.964 5.864 5.821 5.689 5.361 5.316 5.274 5.189 5.141 5.154 5.136 5.126 5.124 5.129 5.119 5.186 5.189 5.206 5.181 5.179 5.129 5.999 5.549 5.674 5.861 5.896 5.856 5.796 5.669 5.229 4.471 4.026 4.316 4.014 4.031 4.134 4.171 4.129 4.111 4.154 4.051 4.104 4.241 4.314 7.559 9.274 9.336 8.249 2.686 2.714 2.731 4.296 7.831 9.461 9.566 9.611 9.581 9.609 9.079 7.724 7.714 7.711 7.714 7.741 7.989 7.794 7.736 7.699 7.689 7.684 7.704 7.711 8.749 10.356 10.249 10.239 10.214 10.196 10.166 10.199 10.904 31.074 40.254 40.276 32.424 46.684 47.601 47.586 47.539 47.534 47.536 47.569 47.579 47.559 46.306 43.894 43.044 43.046 36.616 4.501 2.981 4.591 4.569 4.576 4.549 4.521 4.519 4.531 4.556 4.566 4.551 4.544 4.604 4.711 4.659 4.751 4.769 4.756 6.254
3.983 4.006 4.003 4.063 4.018 4.031 17.416 20.036 19.786 19.648 19.461 19.221 19.031 18.951 13.593 7.076 7.136 9.921 10.061 10.123 10.938 10.951 11.108 11.483 11.761 12.081 12.261 12.431 12.398 11.603 7.931 4.858 6.216 4.763 7.676 5.986 4.416 4.443 4.573 4.583 4.673 4.658 4.576 4.621 4.468 4.386 4.418 4.378 4.443 6.201 22.193 23.401 23.621 23.513 25.026 22.798 24.101 25.761 24.171 20.258 20.198 20.216 11.191 3.741 3.706 3.911 4.331 4.391 -0.614 2.386 13.661 30.233 33.453 33.356 33.418 34.096 34.208 34.056 20.486 12.588 22.083 24.898 13.911 15.981 15.906 7.641 23.391 15.806 21.931 25.758 28.888 26.536 26.903 21.701 5.803 12.096 5.776 10.463 13.568 23.578 22.336 5.666 15.611 34.633 34.636 35.448 33.428 33.393 33.356 33.463 23.436 12.206 4.653 4.596 4.626 4.631 4.766 4.798 4.756 4.788 4.819 4.896 4.894 4.899 4.899 4.899 4.866 4.796 4.764 4.754 4.774 4.739 4.691 4.699 4.794 4.744 4.859 5.169 4.714 4.676 5.381 4.472 5.938 5.347 4.556 4.76 4.553 4.526 4.349 4.412 4.471 4.55 4.606 5.272 8.074 0.766 -0.266 -0.299 -0.174 -0.361 -0.344 -0.358 -0.346 -0.274 2.031 1.868 1.846 -0.075 -0.55 -0.418 -0.583 -0.435 -0.778 -0.797 -0.939 -1.023 -1.105 -1.058 -0.799 -1.12 -0.634 -0.64 -0.785 -0.661 -0.611 -0.869 -1.119 -0.979 -1.394 -1.289 -0.886 -0.811 -0.571 -1.046 -1.019 -1.286 -0.826 -1.401 -1.029 -0.629 -0.589 -1.106 -0.941 -0.791 -1.079 -0.939 -0.586 -1.016 -1.034 -0.979 -0.789 -1.219 -0.769 -0.949 -0.754 -1.019 -0.636 -0.696 -0.771 -1.091 -1.141 -1.109 -1.294 -0.961 -1.154 -0.674 -0.924 -1.054 -0.636 -1.144 -0.899 -1.001 -0.744 -0.646 -1.071 -1.034 -0.659 -1.429 -1.414 -0.759 -0.506 -0.448 -0.626 -0.476 -0.477 -0.375 -0.709 -0.729 -0.415 -0.504 -0.596 -0.279 -0.357 -0.365 -0.402 -0.366 -0.354 -0.431 -0.358 -0.288 -0.408 -0.463 -0.517 -0.418 -0.509 -0.498 -0.517 -0.514 -0.801 -0.723 -0.523 -0.566 -0.463 -0.447 -0.317 -0.36 -0.419 -0.381 -0.379 -0.311 -0.329 -0.431 -0.373 -0.522 -0.099 5.454 5.353 5.5 5.353 5.362 5.369 5.393 5.382 5.416 5.385 5.353 5.723 5.899 6.049 6.221 6.366 6.096 6.054 6.116 6.054 6.034 5.911 5.694 5.694 5.691 5.849 6.094 6.106 6.156 6.159 6.134 6.101 6.081 6.124 6.294 6.299 6.331 6.396 6.376 6.229 6.174 6.066 5.989 5.919 5.834 5.696 5.431 5.411 5.354 5.226 5.144 5.091 5.121 5.106 5.141 5.129 5.101 5.116 5.124 5.151 5.199 5.196 5.196 5.169 5.341 5.336 5.594 5.729 5.781 5.769 5.774 5.614 4.596 4.996 4.116 4.029 3.974 4.046 4.076 4.131 4.119 4.109 4.146 4.129 4.149 4.236 4.234 9.494 9.456 9.429 3.904 4.296 2.936 2.669 2.671 2.701 6.786 8.151 9.194 9.584 9.559 9.566 9.574 8.741 7.724 7.744 7.731 7.744 7.774 7.736 7.759 7.721 7.706 7.711 7.729 7.724 7.729 9.331 10.336 10.274 10.234 10.206 10.201 10.174 10.146 15.704 40.556 43.234 36.256 44.366 47.599 47.551 47.554 47.529 47.541 47.559 47.559 47.559 45.781 31.626 35.706 43.066 43.121 20.719 4.519 4.534 4.534 4.544 4.479 4.481 4.511 4.506 4.529 4.459 4.491 4.636 4.599 4.696 4.894 4.764 4.746 6.559
3.953 4.003 4.038 4.028 4.066 4.046 12.736 19.116 18.998 18.798 18.621 18.381 18.166 17.991 14.831 9.848 16.141 13.798 10.521 10.483 11.018 12.021 12.143 12.061 11.993 11.936 11.803 11.563 11.493 11.368 9.566 4.386 4.328 4.348 4.461 4.438 4.443 4.463 4.551 4.583 4.688 4.678 4.641 4.633 4.508 4.431 4.461 4.398 4.426 8.686 21.548 23.513 23.486 23.413 24.868 24.763 24.068 24.621 24.371 20.851 20.298 20.198 20.238 4.806 3.718 3.928 4.326 4.846 4.903 4.128 13.708 30.291 33.553 33.426 33.453 34.281 34.821 34.521 25.046 8.506 19.296 28.106 17.508 19.073 13.901 14.433 10.101 16.933 25.706 25.586 28.171 28.286 25.223 23.698 15.501 10.331 19.843 6.938 17.763 27.236 13.248 5.628 18.581 34.116 34.661 35.326 33.501 33.411 33.348 31.693 23.408 12.536 4.678 4.641 4.648 4.711 4.793 4.791 4.798 4.798 4.846 4.884 4.909 4.939 4.921 4.891 4.881 4.834 4.791 4.791 4.784 4.734 4.699 4.711 4.786 4.761 4.796 5.229 6.706 8.991 4.519 4.838 13.434 4.632 4.627 4.696 4.534 4.446 6.73 4.429 4.559 4.591 4.641 7.013 4.013 -0.145 -0.389 -0.266 -0.26 -0.211 -0.346 -0.357 -0.314 -0.404 1.983 1.966 1.887 -0.088 -0.74 -0.539 -0.439 -0.552 -0.557 -0.506 -0.929 -0.733 -0.711 -0.756 -0.622 -0.783 -0.634 -1.042 -0.894 -0.564 -0.794 -0.719 -1.164 -0.911 -1.616 -1.309 -0.751 -0.919 -0.619 -1.181 -1.111 -0.971 -0.616 -1.121 -0.886 -0.556 -1.126 -1.254 -1.156 -0.551 -0.734 -1.144 -0.464 -1.104 -0.634 -0.709 -1.064 -0.654 -0.834 -0.981 -0.576 -0.521 -1.386 -0.791 -1.284 -0.926 -1.079 -1.054 -0.856 -0.861 -1.041 -1.101 -0.959 -1.086 -1.159 -0.836 -0.921 -0.971 -0.896 -0.846 -0.741 -0.811 -0.951 -0.909 -0.765 -1.42 -0.525 -0.476 -0.492 -0.657 -0.47 -0.384 -0.455 -0.677 -0.72 -0.656 -0.529 -0.373 -0.358 -0.334 -0.387 -0.469 -0.463 -0.313 -0.443 -0.538 -0.427 -0.512 -0.428 -0.393 -0.562 -0.473 -0.465 -0.48 -0.503 -0.496 -0.502 -0.477 -0.459 -0.452 -0.436 -0.453 -0.334 -0.318 -0.347 -0.294 -0.311 -0.224 -0.408 -0.463 1.362 5.355 5.352 5.374 5.347 5.344 5.374 5.408 5.427 5.368 5.393 5.363 5.748 5.921 6.116 6.286 6.366 5.966 6.044 6.034 5.986 5.726 5.611 5.641 5.639 5.631 5.621 5.709 5.839 6.076 6.141 6.156 6.149 6.141 6.091 6.124 6.126 6.156 6.201 6.184 6.106 6.126 6.014 5.964 5.929 5.689 5.594 5.544 5.446 5.316 5.206 5.209 5.154 5.139 5.099 5.051 5.101 5.156 5.126 5.164 5.164 5.171 5.184 5.216 5.089 5.164 5.191 5.509 5.664 5.791 5.731 5.804 5.429 4.601 4.726 4.259 4.034 4.001 4.069 4.104 4.126 4.096 4.079 4.156 4.201 4.184 4.439 5.911 9.416 9.341 8.689 4.091 3.259 2.669 2.636 2.641 2.861 2.681 2.771 6.951 8.339 9.589 9.556 9.566 9.549 9.619 8.909 7.766 7.706 7.696 7.746 7.759 7.769 7.736 7.746 7.706 7.754 7.729 7.751 7.714 10.041 10.286 10.244 10.241 10.191 10.169 10.149 10.126 21.566 43.294 33.274 43.004 41.201 47.556 47.551 47.521 47.564 47.524 47.531 47.519 47.544 47.546 37.316 43.181 7.126 4.471 4.524 4.516 4.499 4.481 4.459 4.459 4.421 4.351 4.379 4.519 4.579 4.686 4.771 4.714 4.721 4.671 4.684
4.063 4.021 4.031 3.996 4.018 4.053 5.451 18.348 18.156 18.121 15.836 11.641 10.021 9.748 9.918 9.898 14.546 15.518 14.921 10.523 10.978 11.318 11.193 10.991 11.666 12.051 10.918 10.556 8.951 11.068 8.353 4.413 4.363 4.411 4.443 4.403 4.446 4.518 4.581 4.613 4.706 4.638 4.658 4.621 4.531 4.453 4.426 4.433 4.421 4.403 22.108 23.461 23.523 23.486 24.723 24.633 23.981 24.598 24.491 23.168 20.931 20.331 20.263 11.956 3.721 3.913 4.268 5.286 4.823 0.353 13.813 30.208 33.596 33.463 33.556 34.283 34.676 35.096 32.183 18.008 27.268 17.796 19.078 20.933 19.863 27.758 20.868 30.043 28.723 32.386 31.183 25.566 28.121 26.043 15.838 25.631 12.663 14.001 12.098 12.933 13.966 8.041 14.038 33.743 34.713 35.446 33.423 33.403 33.341 31.606 20.248 10.128 4.653 4.641 4.641 4.738 4.793 4.726 4.823 4.858 4.876 4.899 4.934 4.969 4.949 4.919 4.896 4.856 4.859 4.859 4.854 4.764 4.709 4.714 4.759 4.744 4.756 5.386 6.726 4.704 6.41 9.62 8.144 5.502 4.721 4.648 4.57 4.435 5.13 4.367 4.467 4.571 5.137 4.164 -0.411 -0.444 -0.304 -0.284 -0.318 -0.345 -0.371 -0.304 -0.303 -0.46 2.062 1.904 2.101 -0.369 -0.651 -0.732 -0.664 -0.399 -0.615 -0.528 -0.409 -1.039 -1.226 -1.023 -1.079 -0.855 -0.627 -0.917 -1.1 -0.859 -1.314 -1.359 -1.029 -1.051 -1.361 -1.641 -1.026 -0.536 -0.966 -0.931 -0.954 -1.369 -0.834 -1.066 -1.049 -0.909 -0.729 -1.621 -0.904 -0.539 -0.811 -0.669 -0.896 -1.069 -1.174 -0.891 -0.696 -1.156 -1.651 -0.501 -1.334 -0.911 -0.939 -1.049 -0.806 -1.309 -1.259 -0.549 -1.426 -1.034 -0.736 -1.096 -0.881 -1.239 -0.839 -0.571 -1.076 -0.754 -0.819 -1.354 -0.859 -0.649 -0.911 -0.819 -0.581 -0.666 -0.789 -0.458 -0.669 -0.371 -0.481 -0.519 -0.417 -0.692 -0.404 -0.371 -0.571 -0.373 -0.343 -0.375 -0.447 -0.403 -0.479 -0.54 -0.549 -0.358 -0.451 -0.464 -0.445 -0.436 -0.574 -0.66 -0.488 -0.505 -0.46 -0.56 -0.439 -0.484 -0.545 -0.548 -0.416 -0.399 -0.373 -0.355 -0.354 -0.326 -0.324 -0.434 -0.436 -0.529 3.409 5.363 5.351 5.5 5.318 5.33 5.354 5.403 5.402 5.377 5.377 5.374 5.779 5.916 6.104 6.279 6.329 5.951 6.041 5.991 5.799 5.641 5.554 5.566 5.609 5.616 5.664 5.729 5.664 5.721 6.039 6.084 6.174 6.181 6.151 6.104 6.061 6.099 6.129 6.086 6.136 6.101 5.974 5.851 5.811 5.724 5.649 5.559 5.394 5.374 5.291 5.201 5.161 5.096 5.061 5.079 5.086 5.136 5.194 5.144 5.121 5.131 5.181 5.154 5.141 5.151 5.301 5.536 5.596 5.754 5.876 5.774 5.376 4.319 4.161 4.059 4.009 4.006 4.089 4.121 4.116 4.149 4.079 4.109 4.146 4.194 4.189 9.486 9.244 9.441 4.949 4.746 4.641 2.706 2.656 2.586 2.671 2.661 2.644 2.661 3.919 6.371 8.334 9.579 9.574 9.536 9.579 9.594 8.366 7.729 7.706 7.706 7.734 7.751 7.914 7.759 7.716 7.701 7.721 7.729 7.751 7.891 10.426 10.291 10.221 10.186 10.184 10.169 10.146 10.114 31.009 33.309 43.054 36.441 46.456 47.581 47.541 47.554 47.481 47.506 47.561 44.851 43.056 36.119 4.526 4.501 4.519 4.441 4.464 4.429 4.409 4.429 4.329 4.306 4.446 4.504 4.621 4.729 4.686 4.836 5.089 4.639 4.774
4.013 4.026 3.971 4.023 4.068 4.048 4.033 10.291 5.953 4.541 4.551 9.878 9.821 9.831 9.951 9.881 16.358 19.176 18.443 17.338 15.558 8.611 6.076 7.078 7.063 7.031 4.776 9.686 9.428 11.051 8.468 4.436 4.388 4.411 4.446 4.546 4.431 4.481 4.563 4.621 4.636 4.701 4.683 4.651 4.553 4.508 4.483 4.468 4.416 4.388 21.253 23.473 23.436 23.628 24.593 24.658 23.433 24.568 24.576 23.843 21.013 20.371 20.253 12.293 3.768 3.923 4.296 5.258 3.848 0.021 13.768 30.316 33.726 34.698 33.903 33.618 33.648 34.253 30.928 25.016 33.311 29.441 21.028 18.048 33.986 21.623 33.663 32.556 33.826 34.916 33.706 33.828 32.153 25.758 24.823 27.653 24.093 22.768 5.748 19.968 18.868 20.531 27.278 34.821 34.756 35.393 33.373 33.403 33.388 30.813 13.748 7.828 4.663 4.681 4.671 4.766 4.806 4.783 4.823 4.873 4.889 4.924 4.959 4.959 4.944 4.884 4.866 4.904 4.884 4.904 4.876 4.789 4.756 4.734 4.739 4.739 4.764 5.061 4.681 4.649 4.486 9.346 6.746 5.449 4.748 4.641 4.544 5.134 6.391 4.402 4.777 4.57 4.62 1.212 -0.364 -0.331 -0.369 -0.224 -0.338 -0.316 -0.449 -0.282 -0.232 -0.305 -0.182 -0.062 -0.096 -0.154 -0.447 -0.365 -0.424 -0.586 -0.481 -0.442 -0.974 -1.35 -1.159 -0.818 -0.798 -0.782 -0.543 -0.696 -0.736 -1.129 -1.029 -1.109 -1.319 -1.029 -0.936 -1.069 -1.491 -0.976 -0.839 -0.716 -1.171 -0.896 -0.779 -0.756 -0.629 -1.226 -1.014 -0.841 -1.709 -1.561 -1.311 -1.184 -0.924 -0.614 -1.079 -1.216 -0.659 -1.236 -0.799 -0.944 -1.339 -0.756 -0.734 -1.071 -1.204 -1.672 -1.567 -0.548 -0.695 -0.897 -1.069 -0.957 -0.586 -1.016 -1.396 -1.019 -0.561 -0.611 -0.849 -1.037 -1.174 -0.792 -0.591 -0.585 -1.458 -1.066 -0.688 -0.572 -0.939 -0.633 -0.49 -0.55 -0.557 -0.662 -0.568 -0.462 -0.525 -0.513 -0.367 -0.392 -0.395 -0.501 -0.375 -0.474 -0.562 -0.476 -0.616 -0.424 -0.465 -0.518 -0.707 -0.663 -0.789 -0.554 -0.884 -0.526 -0.455 -0.524 -0.441 -0.415 -0.462 -0.423 -0.346 -0.341 -0.372 -0.324 -0.316 -0.457 -0.505 -0.528 4.831 5.336 5.312 5.297 5.295 5.319 5.362 5.405 5.397 5.372 5.4 5.537 5.831 5.969 6.106 6.264 6.159 5.961 5.954 5.891 5.614 5.559 5.614 5.534 5.516 5.506 5.571 5.596 5.654 5.694 5.749 5.866 6.096 6.124 6.159 6.164 6.141 6.156 6.126 6.099 6.116 6.039 5.994 5.959 5.884 5.751 5.631 5.519 5.481 5.321 5.319 5.211 5.121 5.094 5.084 5.081 5.106 5.129 5.129 5.139 5.109 5.101 5.161 5.171 5.161 5.151 5.384 5.756 5.619 5.721 6.031 5.806 5.206 4.736 4.299 4.036 4.006 4.054 4.101 4.141 4.089 4.126 4.039 4.004 4.119 4.174 4.954 9.391 9.274 9.476 5.596 5.161 2.876 2.704 2.681 2.676 2.701 2.671 2.629 2.674 2.631 2.599 3.934 7.376 8.919 9.559 9.544 9.581 9.559 9.501 7.831 7.716 7.706 7.706 7.861 7.781 7.771 7.711 7.736 7.709 7.706 7.706 7.729 7.826 10.374 10.286 10.231 10.206 10.166 10.154 10.146 10.124 21.666 43.086 43.024 47.564 47.586 47.534 47.471 47.551 47.524 43.049 43.319 10.109 5.686 4.464 4.449 4.436 4.451 4.439 4.344 4.294 4.284 4.394 4.454 4.801 4.634 4.721 4.591 4.851 4.624 4.581 4.709
3.903 3.918 3.983 4.036 4.011 4.036 4.213 4.781 4.596 4.523 7.513 16.081 18.663 20.213 21.113 19.276 19.023 19.233 19.363 19.133 15.073 7.443 5.048 6.701 7.018 7.041 6.076 7.661 10.856 10.906 9.073 4.443 4.356 4.391 4.428 4.468 4.441 4.536 4.598 4.646 4.668 4.703 4.668 4.543 4.688 4.478 4.511 4.446 4.451 4.493 18.818 23.436 23.473 23.511 24.156 24.821 24.423 24.438 24.593 24.026 20.401 20.193 20.238 3.856 3.751 3.946 4.221 5.143 2.098 0.966 26.661 42.783 43.753 42.988 41.603 39.816 40.131 39.378 40.721 41.093 40.873 41.011 41.648 41.206 41.211 41.388 41.588 41.103 41.478 39.913 41.036 40.031 40.331 40.051 38.793 38.368 35.276 33.098 27.761 22.598 35.593 30.141 16.578 33.973 34.448 33.481 33.536 33.441 33.446 30.248 13.646 5.643 4.643 4.696 4.746 4.778 4.798 4.788 4.876 4.903 4.906 4.924 4.931 4.904 4.931 4.856 4.889 4.904 4.871 4.856 4.854 4.814 4.819 5.206 4.716 4.759 4.764 4.721 4.669 5.681 4.445 4.625 5.042 4.575 4.812 4.62 4.794 6.372 6.542 4.451 4.533 4.594 4.827 0.164 -0.306 -0.186 -0.416 -0.336 -0.311 -0.37 -0.427 -0.299 -0.35 -0.418 -0.35 -0.245 -0.38 -0.41 -0.359 -0.59 -0.85 -0.604 -0.729 -0.903 -0.992 -1.007 -0.566 -0.668 -0.979 -0.746 -1.069 -1.376 -1.281 -0.796 -1.344 -0.846 -0.994 -0.604 -1.196 -0.616 -1.179 -0.751 -1.451 -1.131 -0.861 -1.089 -1.216 -0.974 -0.921 -0.794 -0.814 -0.861 -0.901 -1.226 -1.099 -1.184 -0.899 -0.881 -0.991 -0.586 -0.769 -1.034 -1.006 -1.221 -0.624 -0.571 -0.914 -0.936 -0.828 -0.827 -0.793 -0.604 -0.612 -1.312 -1.172 -0.958 -1.184 -0.799 -0.943 -1.246 -0.936 -0.825 -0.992 -0.595 -0.8 -0.779 -0.682 -0.931 -1.553 -0.8 -0.517 -0.731 -0.599 -0.547 -0.445 -0.747 -0.756 -0.631 -0.803 -0.433 -0.681 -0.385 -0.432 -0.477 -0.503 -0.425 -0.734 -0.414 -0.468 -0.514 -0.68 -0.487 -0.787 -0.477 -0.494 -0.501 -1.503 -0.459 -0.464 -0.613 -0.455 -0.463 -0.477 -0.455 -0.379 -0.395 -0.37 -0.349 -0.351 -0.321 -0.299 -0.432 -0.496 -0.555 5.45 5.319 5.287 5.285 5.288 5.307 5.378 5.427 5.401 5.368 5.356 5.699 5.874 5.996 6.124 6.236 6.041 5.936 5.916 5.919 5.616 5.626 5.501 5.504 5.464 5.466 5.461 5.479 5.554 5.631 5.696 5.721 5.859 6.044 6.119 6.141 6.134 6.151 6.141 6.156 6.161 6.124 6.041 5.909 5.814 5.699 5.644 5.534 5.451 5.354 5.241 5.206 5.149 5.114 5.079 5.051 5.081 5.071 5.089 5.131 5.139 5.016 5.094 5.149 5.119 5.341 5.466 5.436 5.604 5.741 6.071 5.466 5.079 4.606 4.361 4.049 4.009 4.084 4.124 4.139 4.116 4.091 4.001 4.011 4.086 4.234 7.029 9.239 9.314 5.787 3.819 3.725 3.879 3.463 2.726 2.695 2.736 2.679 2.677 2.659 2.606 2.729 2.619 2.569 5.584 7.759 9.294 9.551 9.554 9.521 9.541 9.511 7.739 7.724 7.696 7.741 7.879 7.894 7.784 7.734 7.701 7.711 7.711 7.716 7.714 8.704 10.319 10.254 10.226 10.186 10.166 10.139 31.459 43.044 45.451 47.574 47.559 47.564 47.581 47.574 44.146 43.091 32.909 8.801 8.801 5.226 4.411 4.404 4.484 4.321 4.296 4.204 4.324 4.434 4.441 4.491 4.679 4.581 4.616 4.619 4.519 4.564 4.689
3.918 3.973 4.021 4.023 4.003 4.101 4.078 5.168 4.561 4.558 7.768 18.458 19.586 19.818 19.988 20.353 20.608 20.631 20.706 19.328 17.161 4.666 4.758 7.051 13.016 14.136 13.071 11.631 10.983 11.001 9.548 6.288 6.883 4.348 4.403 4.453 4.433 4.511 4.578 4.626 4.663 5.038 4.713 4.633 4.543 4.538 7.426 4.566 4.656 4.543 16.421 23.438 23.501 23.506 23.956 21.098 16.423 24.221 24.618 24.158 20.293 20.211 15.816 3.801 3.808 3.988 4.266 5.003 -1.387 -0.894 30.086 42.748 43.716 43.108 43.083 43.156 43.186 43.241 43.248 43.276 43.288 43.308 43.353 43.398 43.373 43.396 43.623 43.328 43.321 43.283 43.288 43.258 43.193 43.146 43.106 43.018 42.971 42.908 42.808 42.731 42.648 42.523 42.121 40.846 39.646 39.486 38.093 42.611 42.341 41.043 35.451 4.833 4.603 4.648 4.716 4.776 4.798 4.781 4.828 4.833 4.901 4.896 4.869 4.866 4.911 4.914 4.896 4.901 4.859 4.851 4.851 4.866 4.744 4.711 4.711 8.189 4.859 4.724 7.006 5.271 4.634 4.522 4.566 4.608 4.789 4.583 4.467 4.404 8.568 4.459 5.325 4.583 5.043 -0.278 -0.314 -0.311 -0.371 -0.269 -0.254 -0.317 -0.359 -0.44 -0.333 -0.32 -0.329 -0.292 -0.552 -0.356 -0.462 -0.443 -0.692 -0.698 -0.902 -0.494 -0.624 -0.716 -0.503 -0.672 -1.013 -1.048 -0.762 -0.936 -1.134 -1.206 -1.229 -1.626 -1.519 -0.676 -0.726 -1.524 -1.221 -1.416 -1.121 -0.704 -1.024 -0.796 -1.071 -0.794 -1.156 -1.209 -1.031 -0.811 -0.584 -1.004 -0.881 -0.751 -0.514 -1.091 -0.729 -1.189 -0.926 -0.669 -0.824 -0.989 -0.686 -1.131 -0.921 -0.889 -0.953 -0.798 -0.671 -0.658 -0.743 -0.625 -0.493 -0.601 -1.032 -1.057 -0.559 -1.059 -0.802 -0.655 -1.074 -0.614 -0.525 -0.835 -0.628 -0.973 -1.575 -1.113 -0.699 -0.524 -0.68 -0.608 -0.721 -0.501 -0.552 -0.797 -0.386 -0.423 -0.754 -0.611 -0.541 -0.576 -0.469 -0.429 -0.46 -0.443 -0.654 -0.409 -0.468 -0.587 -0.496 -0.474 -0.502 -0.404 -0.567 -0.462 -0.582 -0.514 -0.39 -0.482 -0.448 -0.395 -0.398 -0.41 -0.391 -0.345 -0.329 -0.319 -0.326 -0.418 -0.496 -0.078 5.447 5.33 5.321 5.312 5.285 5.327 5.372 5.5 5.393 5.378 5.286 5.73 5.866 6.004 6.129 6.241 5.826 5.909 5.904 5.726 5.619 5.546 5.489 5.421 5.421 5.421 5.396 5.424 5.491 5.494 5.554 5.646 5.774 5.874 6.056 6.124 6.099 6.146 6.114 6.144 6.146 6.094 5.991 5.901 5.856 5.694 5.606 5.504 5.406 5.266 5.211 5.174 5.121 5.094 5.074 5.109 5.076 5.084 5.064 5.126 5.174 4.934 5.001 5.036 5.064 5.086 5.394 5.496 5.471 5.591 5.519 4.434 4.531 4.566 4.084 4.009 4.024 4.094 4.119 4.129 4.116 4.019 3.981 4.029 4.086 4.271 9.474 9.172 9.453 4.181 3.725 3.606 3.464 3.344 3.226 3.654 3.051 2.732 2.71 2.699 2.657 2.662 2.715 2.671 2.559 2.781 6.201 8.019 9.349 9.541 9.564 9.541 9.531 9.286 7.741 7.729 7.709 7.719 7.749 7.724 7.701 7.709 7.684 7.669 7.704 7.709 7.704 8.956 10.321 8.126 8.574 10.404 43.141 43.069 47.596 47.544 47.561 47.536 47.531 47.229 43.084 43.436 10.171 8.794 8.219 4.351 4.314 4.349 4.349 6.229 4.186 4.209 4.281 4.561 4.489 4.559 4.576 4.534 4.596 4.541 4.494 4.599 4.739
3.936 3.951 4.003 4.001 4.103 4.096 4.068 5.296 5.223 5.183 7.308 18.633 20.521 21.138 21.403 21.423 21.488 21.506 21.048 20.506 17.688 4.873 7.041 14.186 14.896 15.236 15.048 14.451 12.403 11.376 11.911 11.541 8.048 4.366 4.396 4.436 4.451 4.501 4.543 4.616 4.676 5.218 4.703 4.686 4.626 4.553 12.848 7.788 4.606 4.556 9.211 20.723 24.653 23.701 24.331 18.433 13.453 24.066 24.653 24.226 14.133 5.511 3.716 3.793 3.873 4.033 4.211 4.568 -1.479 -1.512 27.201 42.696 43.688 43.888 43.911 43.921 43.881 43.691 40.581 40.186 42.348 41.736 42.808 37.608 41.596 43.253 43.866 43.878 43.903 43.836 43.841 43.853 43.788 43.818 43.908 43.878 43.813 42.791 43.738 43.713 43.648 43.546 43.458 43.341 43.291 43.121 43.036 42.918 43.691 42.938 39.393 4.793 4.598 4.611 4.741 4.771 4.806 4.788 4.861 4.843 4.891 4.864 4.856 4.861 4.861 4.901 4.899 4.899 4.874 4.871 4.866 4.796 4.776 4.756 4.691 4.819 5.171 6.049 4.676 4.526 4.728 9.636 4.526 4.634 4.799 4.543 4.923 6.118 5.483 4.929 4.562 4.615 3.976 -0.383 -0.271 -0.206 -0.261 -0.341 -0.259 -0.29 -0.237 -0.498 -0.428 -0.342 -0.429 -0.483 -0.266 -0.416 -0.624 -0.417 -0.686 -0.843 -0.538 -0.785 -0.487 -0.977 -1.263 -0.986 -1.205 -1.173 -0.864 -0.834 -0.979 -1.174 -0.956 -1.289 -1.439 -1.161 -0.774 -0.871 -1.259 -0.916 -0.944 -0.736 -1.599 -1.259 -1.186 -0.949 -1.076 -1.296 -0.679 -0.661 -1.509 -1.001 -1.334 -0.666 -0.766 -0.854 -0.606 -1.049 -1.079 -0.929 -1.394 -0.795 -0.952 -0.741 -0.836 -1.166 -1.177 -0.839 -0.83 -1.016 -0.692 -0.723 -0.996 -0.611 -0.967 -0.806 -0.613 -1.365 -0.571 -0.983 -1.113 -0.703 -0.61 -0.637 -0.75 -0.929 -0.862 -0.573 -0.517 -1.166 -0.768 -0.681 -0.801 -0.384 -0.527 -0.468 -0.697 -0.766 -0.763 -0.702 -0.502 -0.529 -0.475 -0.487 -0.465 -0.682 -0.671 -0.508 -0.762 -0.649 -0.47 -0.527 -0.737 -0.452 -0.548 -0.509 -0.619 -0.481 -0.476 -0.46 -0.572 -0.493 -0.356 -0.363 -0.354 -0.368 -0.321 -0.299 -0.428 -0.466 -0.507 1.017 5.355 5.355 5.344 5.314 5.329 5.34 5.37 5.395 5.365 5.357 5.329 5.717 5.914 5.976 6.106 6.164 5.776 5.909 5.824 5.676 5.594 5.486 5.491 5.434 5.419 5.379 5.324 5.291 5.361 5.374 5.466 5.546 5.656 5.726 5.809 5.856 5.991 6.094 6.064 6.091 6.101 6.084 5.981 5.896 5.764 5.606 5.529 5.391 5.336 5.241 5.181 5.164 5.094 5.099 5.079 5.089 5.119 5.084 5.079 5.091 4.936 4.869 4.911 4.931 5.401 5.311 5.416 5.379 5.504 5.364 5.344 5.354 4.746 4.211 4.061 3.974 4.054 4.109 4.129 4.129 4.096 4.029 3.989 3.984 4.121 5.856 9.251 9.307 8.249 3.691 3.597 3.49 3.361 3.252 3.122 3.02 2.885 2.841 3.099 3.086 2.736 2.711 2.677 2.696 2.719 2.661 2.656 2.706 7.319 8.281 9.504 9.539 9.561 9.559 9.541 8.756 7.731 7.729 7.691 7.711 7.744 7.874 7.794 7.729 7.684 7.699 7.696 7.704 7.769 7.749 7.779 35.809 43.204 46.326 47.584 47.566 47.569 47.589 47.566 43.579 43.089 29.641 8.801 8.771 4.614 4.324 4.314 4.286 4.414 4.996 4.134 4.189 4.319 4.536 4.551 4.544 4.579 4.454 4.491 4.496 4.641 4.786 4.804
3.913 3.948 4.008 4.021 4.058 4.098 4.106 5.806 5.571 5.916 6.481 17.666 19.441 20.981 21.591 21.623 21.668 22.888 21.976 19.743 17.851 7.423 12.893 14.758 15.591 10.381 11.563 15.023 14.108 12.018 12.448 12.188 9.593 4.368 4.378 4.401 4.441 4.476 4.543 4.671 4.656 5.213 4.723 4.733 4.601 5.448 14.061 6.861 4.566 4.536 4.538 13.101 26.721 24.078 25.301 20.703 21.731 25.136 22.208 4.226 3.938 3.868 3.843 3.878 3.961 4.081 4.253 4.456 4.511 5.493 23.411 42.621 43.661 43.913 42.466 41.593 43.918 43.741 40.363 40.703 42.776 42.231 42.991 37.968 41.526 43.518 43.903 43.891 43.886 43.873 43.913 43.933 43.901 43.926 43.911 43.426 43.628 37.891 42.163 41.638 42.103 38.228 42.993 43.821 43.838 43.861 43.788 43.776 43.688 42.833 34.693 4.658 4.598 4.596 4.746 4.761 4.748 4.806 4.896 4.896 4.869 4.806 4.914 4.864 4.856 4.886 4.889 4.899 4.881 4.971 4.904 4.796 4.771 4.811 4.756 4.751 5.269 7.629 7.559 6.764 6.562 4.832 5.076 4.65 4.716 6.18 5.428 6.782 8.112 8.111 6.318 4.643 4.751 -0.371 -0.418 -0.301 -0.099 -0.281 -0.329 -0.331 -0.303 -0.584 -0.318 -0.267 -0.325 -0.414 -0.324 -0.393 -0.784 -0.863 -0.69 -0.686 -0.612 -0.684 -0.736 -0.903 -0.75 -1.019 -0.66 -1.099 -1.054 -0.691 -0.636 -1.121 -1.369 -1.291 -1.531 -0.946 -1.334 -1.171 -0.581 -1.306 -0.721 -0.934 -1.169 -1.129 -1.401 -1.491 -1.011 -1.169 -1.089 -0.929 -1.656 -1.526 -1.086 -1.406 -1.306 -0.766 -1.179 -0.901 -1.384 -0.851 -0.814 -0.871 -1.023 -0.85 -1.005 -1.01 -0.785 -0.833 -0.855 -0.576 -0.834 -0.771 -0.497 -0.504 -0.615 -0.714 -0.713 -0.482 -0.504 -0.697 -0.566 -0.573 -0.488 -1.094 -0.507 -0.47 -0.903 -1.065 -0.667 -0.687 -0.513 -0.488 -0.872 -0.77 -0.414 -0.609 -0.66 -0.709 -0.461 -0.73 -0.755 -0.416 -0.597 -0.506 -0.482 -0.458 -0.472 -0.438 -0.546 -1.013 -0.536 -1.006 -0.556 -0.697 -0.479 -0.536 -0.463 -0.451 -0.447 -0.412 -0.423 -0.44 -0.378 -0.388 -0.362 -0.336 -0.326 -0.374 -0.47 -0.562 -0.519 3.152 5.371 5.357 5.34 5.359 5.445 5.349 5.358 5.373 5.36 5.38 5.475 5.786 5.849 5.999 6.079 6.131 5.736 5.809 5.736 5.614 5.559 5.484 5.446 5.361 5.386 5.316 5.229 5.206 5.239 5.271 5.396 5.479 5.509 5.601 5.679 5.764 5.801 5.881 5.949 6.011 6.051 5.979 5.859 5.734 5.589 5.441 5.379 5.306 5.226 5.186 5.156 5.131 5.084 5.069 5.079 5.084 5.099 5.071 5.076 5.114 4.736 4.789 4.851 5.014 4.959 5.129 5.204 5.374 5.494 5.289 5.179 4.946 4.666 4.104 3.981 3.999 4.094 4.124 4.101 4.121 4.056 4.014 4.014 4.056 4.09 9.034 9.274 9.357 4.849 3.906 3.671 3.434 3.231 3.143 3.015 2.921 2.829 2.765 2.759 2.754 2.775 3.089 2.906 2.724 2.69 2.65 2.644 2.686 2.656 4.059 7.554 8.509 9.576 9.564 9.591 9.584 9.569 8.426 7.726 7.704 7.701 7.804 7.774 7.706 7.684 7.691 7.674 7.704 7.701 8.829 8.339 43.059 43.044 47.614 47.629 47.581 47.564 47.599 47.086 43.066 42.634 9.331 8.824 8.204 4.251 4.269 4.351 4.219 6.514 4.221 4.171 4.236 4.401 4.606 4.569 4.511 4.529 5.109 4.419 18.679 4.714 4.819 4.831
3.921 3.941 4.068 4.006 4.046 4.076 4.148 5.986 5.383 5.246 6.518 16.163 19.268 20.771 22.861 21.686 21.791 21.606 21.373 19.866 18.473 13.991 13.978 15.018 15.873 8.671 10.718 15.241 14.163 12.001 12.113 11.778 10.961 4.393 4.353 4.406 4.501 4.466 4.541 4.588 4.646 4.836 4.803 4.658 4.573 4.698 4.841 6.128 7.946 4.531 4.528 5.338 17.533 23.266 23.493 22.336 23.081 22.496 22.031 3.943 3.991 3.961 3.981 4.021 4.068 4.138 4.268 4.473 4.713 5.698 20.423 42.581 43.608 43.873 43.756 43.758 44.041 43.151 40.153 41.618 42.411 41.183 42.308 38.458 43.898 43.861 43.843 43.858 43.853 43.866 43.836 43.833 43.853 43.853 43.853 42.893 43.803 37.501 42.221 39.993 42.086 38.123 43.863 43.896 43.903 42.571 43.096 43.811 43.706 42.778 27.666 4.773 4.678 4.628 4.753 4.708 4.778 4.833 4.866 4.876 4.849 4.909 4.891 4.864 4.854 4.851 4.884 4.894 4.836 5.056 5.094 4.799 4.794 4.779 4.776 4.769 4.736 8.069 7.616 6.799 5.267 6.321 6.811 4.736 4.655 5.46 6.891 5.413 7.94 4.497 4.569 4.596 3.276 -0.527 -0.294 -0.281 -0.334 -0.156 -0.4 -0.284 -0.334 -0.304 -0.337 -0.349 -0.571 -0.569 -0.478 -0.385 -0.459 -0.935 -0.777 -0.669 -0.415 -0.558 -0.669 -0.652 -0.867 -1.118 -1.342 -1.326 -1.234 -0.844 -1.201 -0.636 -1.394 -0.971 -1.269 -0.779 -0.724 -1.181 -1.411 -1.834 -1.474 -0.441 -1.296 -1.004 -1.259 -1.784 -1.416 -1.264 -1.356 -1.251 -0.829 -1.416 -1.166 -0.971 -0.891 -1.671 -0.619 -0.906 -1.251 -0.929 -0.641 -1.087 -0.969 -0.932 -0.63 -0.682 -0.842 -0.596 -0.559 -0.684 -0.806 -0.547 -0.779 -0.638 -0.836 -0.787 -0.534 -0.844 -0.977 -0.872 -0.519 -0.627 -0.701 -0.573 -0.694 -0.683 -0.505 -0.557 -0.464 -0.835 -0.644 -0.529 -0.46 -0.747 -0.507 -0.584 -0.727 -0.455 -0.339 -0.909 -0.692 -0.414 -0.687 -0.555 -0.505 -0.513 -0.77 -0.673 -0.421 -0.382 -0.479 -0.792 -0.55 -0.661 -0.491 -0.507 -0.459 -0.405 -0.423 -0.427 -0.409 -0.61 -0.399 -0.489 0.651 0.197 -0.311 -0.316 -0.46 -0.499 -0.512 4.57 5.418 5.385 5.37 5.346 5.357 5.35 5.375 5.376 5.362 5.387 5.678 5.799 5.904 5.996 6.059 6.081 5.689 5.771 5.704 5.624 5.526 5.496 5.461 5.354 5.324 5.256 5.156 5.101 5.116 5.184 5.274 5.331 5.389 5.446 5.554 5.626 5.626 5.701 5.686 5.779 5.764 5.764 5.671 5.561 5.486 5.366 5.294 5.204 5.144 5.106 5.094 5.099 5.106 5.084 5.094 5.091 5.049 5.084 5.089 5.084 4.741 4.744 4.791 4.949 4.929 5.179 5.164 5.301 5.404 5.281 4.916 4.811 4.421 4.051 3.946 4.029 4.086 4.109 4.111 4.099 4.026 3.949 4.066 4.17 4.183 9.438 9.298 9.159 3.959 3.845 3.642 3.458 3.29 3.101 2.939 2.796 2.697 2.69 2.704 2.707 2.737 2.698 2.755 2.771 2.831 2.728 2.69 2.666 2.686 2.691 2.734 4.296 7.801 8.361 9.554 9.539 9.584 9.549 9.539 8.034 7.721 7.704 7.691 7.721 7.699 7.716 7.686 7.724 7.734 7.799 42.639 43.069 46.574 47.546 47.594 47.616 47.604 47.624 43.094 43.169 20.424 8.821 8.821 4.279 4.249 4.254 4.474 4.206 4.209 4.081 4.151 4.261 4.364 4.504 4.401 4.374 4.396 4.334 4.576 4.579 8.519 12.096 4.924
3.893 3.933 3.988 4.011 4.056 4.061 4.116 5.976 4.588 4.571 4.596 13.143 19.141 20.593 21.518 21.621 21.731 21.603 19.766 20.358 18.893 14.248 13.526 14.738 13.716 12.973 14.178 15.026 14.058 11.258 11.731 11.143 9.733 4.353 4.326 4.396 4.461 4.476 4.533 4.591 4.628 4.818 4.723 4.796 4.651 4.641 4.513 4.443 4.486 4.528 4.501 5.243 10.648 22.898 23.571 22.511 23.003 22.861 22.438 3.851 4.068 4.053 4.073 4.126 4.176 4.211 4.308 4.443 4.058 4.298 18.306 42.518 43.598 43.773 43.746 43.826 44.943 44.153 43.601 43.541 43.498 43.498 43.468 43.468 43.493 43.486 43.503 43.496 43.523 43.543 43.546 43.591 43.628 43.696 43.698 43.773 43.818 40.783 43.396 41.751 42.721 38.468 43.688 43.813 43.873 43.223 43.696 43.886 43.643 42.623 23.231 5.453 4.706 4.706 4.748 4.758 4.803 4.828 4.793 4.878 4.931 4.906 4.881 4.871 4.854 4.844 4.889 4.874 4.879 4.896 4.931 4.814 4.816 4.799 5.119 4.674 4.726 4.714 4.581 8.851 6.662 9.931 4.582 4.801 4.662 4.563 4.532 4.401 7.001 6.59 4.58 4.608 1.934 -0.489 -0.411 -0.301 -0.244 -0.301 -0.381 -0.361 -0.471 -0.496 -0.42 -0.547 -0.673 -0.524 -0.724 -0.415 -0.49 -0.522 -0.604 -0.801 -0.606 -0.683 -0.742 -1.05 -0.876 -1.094 -1.017 -1.226 -0.594 -1.239 -1.396 -1.446 -0.996 -1.506 -0.869 -0.616 -0.944 -0.939 -1.659 -0.994 -1.061 -1.461 -1.376 -1.369 -0.764 -1.469 -1.814 -1.906 -1.089 -1.099 -0.711 -0.789 -1.066 -1.136 -1.239 -1.089 -0.921 -1.181 -1.661 -0.642 -0.76 -0.503 -0.933 -0.656 -0.567 -0.624 -0.846 -0.854 -0.545 -0.602 -0.572 -0.48 -0.442 -0.67 -0.61 -0.624 -0.593 -0.858 -0.775 -0.625 -0.475 -0.658 -0.556 -0.486 -0.624 -0.468 -0.748 -0.633 -0.784 -0.597 -0.588 -0.55 -0.526 -0.545 -0.662 -0.562 -0.461 -0.465 -0.588 -0.858 -0.455 -0.656 -0.472 -0.794 -0.642 -0.475 -0.657 -0.427 -0.448 -0.462 -0.676 -0.43 -0.472 -0.423 -0.548 -0.448 -0.461 -0.44 -0.494 -0.374 -0.398 -0.438 -0.383 -0.392 1.591 1.643 -0.319 -0.281 -0.435 -0.463 -0.513 5.349 5.368 5.341 5.349 5.334 5.363 5.382 5.391 5.364 5.357 5.334 5.714 5.791 5.876 5.951 6.009 6.039 5.661 5.711 5.686 5.664 5.589 5.516 5.434 5.374 5.269 5.189 5.071 5.076 5.104 5.079 5.131 5.206 5.251 5.351 5.416 5.444 5.469 5.501 5.469 5.469 5.506 5.531 5.484 5.401 5.331 5.239 5.241 5.179 5.099 5.081 5.056 5.094 5.019 5.039 5.051 5.101 5.119 5.179 5.081 4.724 4.726 4.771 4.766 4.739 4.919 5.144 5.239 5.151 5.229 4.969 4.886 4.714 4.416 4.031 3.981 4.056 4.101 4.109 4.084 4.061 3.996 4.076 4.146 10.604 7.285 8.229 9.205 7.845 3.683 3.577 3.484 3.364 3.168 3.115 2.958 2.795 2.661 2.599 2.627 2.669 2.696 2.667 2.808 2.796 3.212 3.196 2.769 2.781 2.689 2.671 2.661 2.666 2.709 4.324 8.161 9.229 9.544 9.526 9.544 9.514 9.201 7.704 7.734 7.681 7.704 7.721 7.731 7.719 8.111 14.314 43.079 43.591 47.544 47.564 47.564 47.574 47.601 45.786 43.174 42.379 8.779 9.264 5.994 4.219 4.251 4.219 4.164 4.146 4.124 4.106 4.199 4.211 4.499 4.506 4.406 4.344 4.236 4.429 36.024 60.104 52.959 18.314 33.366
3.913 4.298 4.091 4.003 4.133 4.191 4.076 4.891 4.161 4.473 4.478 13.308 19.148 20.486 21.501 21.681 21.741 21.601 21.711 20.356 18.801 14.356 4.963 14.163 14.776 14.651 14.958 14.273 12.948 11.211 10.943 5.163 4.408 4.328 4.318 4.398 4.451 4.428 4.508 4.623 4.611 4.653 4.681 4.693 4.611 4.526 4.436 4.428 4.488 4.493 4.531 5.121 10.888 22.866 23.583 22.433 22.143 22.571 22.613 3.748 4.138 4.086 4.101 4.176 4.211 4.243 4.303 4.438 4.208 5.471 18.083 42.488 43.521 43.303 42.818 42.738 42.968 42.683 42.648 42.573 42.501 42.508 42.503 42.483 42.493 42.053 42.511 42.518 42.533 42.533 42.556 42.613 42.656 42.688 42.758 42.821 42.883 42.961 43.031 43.133 43.203 43.258 43.366 43.473 43.563 43.691 43.711 43.773 43.553 42.468 20.191 4.878 4.851 4.666 4.716 4.758 4.773 4.803 4.853 4.891 4.881 4.916 4.876 4.859 4.849 4.886 4.879 4.899 4.901 4.916 4.936 4.806 4.789 4.799 4.814 4.739 5.141 4.726 4.616 4.589 4.521 4.575 4.593 4.798 4.604 4.507 4.41 4.416 4.426 4.566 4.605 4.675 1.164 -0.551 -0.265 -0.306 -0.246 -0.254 -0.364 -0.379 -0.462 -0.331 -0.385 -0.369 -0.485 -0.772 -0.493 -0.44 -0.367 -0.384 -0.586 -0.459 -0.784 -0.527 -0.711 -1.134 -0.628 -0.849 -0.946 -0.866 -0.944 -1.629 -0.914 -1.041 -1.016 -0.416 -1.251 -1.044 -0.561 -1.361 -1.056 -0.776 -1.009 -1.294 -1.589 -1.659 -1.529 -1.196 -0.454 -1.494 -0.829 -0.739 -0.856 -0.864 -1.414 -1.204 -1.271 -0.951 -1.766 -1.049 -0.858 -0.745 -0.681 -1.231 -0.972 -0.765 -0.909 -0.411 -1.054 -0.584 -0.702 -0.531 -0.53 -0.504 -0.437 -0.444 -0.697 -0.728 -0.608 -0.712 -0.496 -0.441 -0.505 -0.545 -0.62 -0.575 -0.622 -0.572 -0.674 -0.918 -0.54 -0.636 -0.658 -0.618 -0.524 -0.441 -0.463 -0.53 -0.488 -0.618 -0.563 -1.045 -0.634 -0.552 -0.534 -0.475 -0.485 -0.577 -0.48 -0.466 -0.405 -0.457 -0.432 -0.57 -0.702 -0.421 -0.406 -0.622 -0.437 -0.372 -0.585 -0.643 -0.412 -0.335 -0.369 -0.335 -0.339 -0.326 -0.309 -0.409 -0.444 -0.497 -0.471 5.548 5.342 5.349 5.315 5.329 5.357 5.371 5.379 5.349 5.347 5.347 5.719 5.779 5.869 5.949 5.961 6.064 5.621 5.694 5.649 5.636 5.556 5.496 5.469 5.386 5.266 5.161 5.056 5.081 5.089 5.106 5.129 5.154 5.176 5.194 5.274 5.296 5.316 5.336 5.331 5.304 5.289 5.334 5.304 5.251 5.224 5.179 5.161 5.134 5.081 5.031 5.031 4.981 4.999 4.991 5.039 5.046 5.096 5.149 5.049 4.716 4.734 4.746 4.794 4.751 4.669 5.109 5.139 5.379 5.084 5.256 4.689 4.284 4.066 3.994 4.004 4.084 4.119 4.121 4.109 4.071 4.024 4.141 4.184 61.517 96.143 42.104 22.716 4.318 3.678 3.567 3.405 3.229 3.085 2.997 2.88 2.745 2.648 2.635 2.606 2.587 2.648 2.657 2.757 2.767 3.005 3.005 2.811 2.765 2.716 2.656 2.634 2.634 2.669 2.734 2.709 5.824 7.856 9.476 9.514 9.559 9.526 9.539 9.559 7.704 7.676 7.676 7.664 7.954 7.791 43.294 43.059 47.541 47.571 47.591 47.576 47.594 47.576 43.071 43.134 21.749 8.906 9.296 4.671 4.201 4.181 4.246 4.216 4.131 3.971 4.109 4.224 4.381 4.521 4.409 4.396 4.329 4.261 4.489 59.211 61.739 61.941 61.639 52.621
3.876 4.266 3.951 4.133 4.111 4.751 4.126 5.031 4.506 4.543 4.536 9.703 18.693 20.198 23.728 22.598 21.673 21.678 21.948 20.488 19.388 11.636 6.198 7.236 11.618 14.141 13.768 7.631 11.183 11.066 10.941 7.038 4.416 4.356 4.338 4.388 4.426 4.391 4.466 4.603 4.598 4.736 4.671 4.786 4.646 4.571 4.538 4.371 4.471 4.463 4.511 4.778 10.273 22.796 23.661 23.028 22.183 22.618 22.628 3.631 4.166 4.098 4.103 4.173 4.198 4.251 4.303 4.443 4.463 5.368 12.001 42.271 43.156 43.353 39.846 33.711 33.938 33.941 34.673 34.266 32.843 29.716 27.573 18.161 21.626 21.346 12.691 17.311 26.626 31.651 30.671 31.698 31.853 31.108 27.623 28.433 35.296 34.708 37.861 40.683 40.473 41.763 40.978 42.421 42.578 42.688 42.786 43.371 43.376 42.353 12.766 4.643 4.678 4.706 4.761 4.781 4.781 4.848 4.861 4.871 4.881 4.876 4.851 4.874 4.881 4.849 4.876 4.899 4.926 4.874 4.879 4.804 4.721 4.721 4.819 4.876 4.736 4.679 4.506 6.251 4.563 4.652 4.681 4.819 5.456 6.884 4.901 7.543 4.863 4.538 4.773 5.584 5.202 -0.536 -0.345 -0.44 -0.319 -0.191 -0.409 -0.398 -0.393 -0.438 -0.421 -0.423 -0.406 -0.409 -0.624 -0.443 -0.586 -0.47 -0.576 -1.075 -0.672 -0.837 -0.558 -0.689 -0.722 -0.818 -1.019 -0.754 -1.359 -1.806 -1.209 -1.064 -0.594 -0.804 -0.784 -0.854 -0.581 -0.714 -0.724 -0.614 -1.146 -0.781 -0.529 -1.134 -1.294 -0.911 -0.889 -1.506 -1.334 -0.734 -1.121 -0.596 -0.851 -1.206 -0.609 -0.909 -1.509 -1.669 -1.092 -0.921 -0.672 -0.946 -0.807 -1.211 -0.824 -0.977 -0.809 -0.404 -0.481 -0.69 -0.684 -0.664 -0.537 -0.642 -0.434 -0.616 -0.446 -0.702 -0.593 -0.507 -0.675 -1.022 -1.052 -0.833 -0.68 -0.696 -0.53 -0.545 -0.543 -0.416 -0.556 -0.413 -0.389 -0.425 -0.435 -0.419 -0.4 -0.639 -0.755 -0.418 -0.585 -0.534 -0.783 -0.446 -0.789 -0.55 -0.571 -0.415 -0.447 -0.359 -0.513 -0.445 -0.456 -0.507 -0.427 -0.822 -0.855 -0.761 -0.041 -0.499 -0.586 -0.35 -0.297 -0.388 -0.316 -0.364 -0.334 -0.388 -0.492 -0.536 0.239 5.405 5.334 5.508 5.306 5.319 5.362 5.377 5.393 5.378 5.376 5.484 5.749 5.779 5.851 5.891 5.966 6.019 5.616 5.674 5.619 5.609 5.524 5.506 5.476 5.361 5.289 5.226 5.064 5.079 5.076 5.091 5.129 5.144 5.151 5.141 5.131 5.161 5.196 5.216 5.209 5.214 5.164 5.194 5.171 5.161 5.136 5.139 5.129 5.109 5.074 5.026 4.999 4.979 4.989 5.026 5.034 5.079 5.049 5.091 4.679 4.759 4.776 4.804 4.769 4.706 4.609 5.029 5.009 4.919 5.104 4.646 4.689 4.321 4.044 3.979 4.024 4.084 4.099 4.099 4.084 4.036 4.091 4.153 4.234 95.812 96.217 90.044 90.636 98.734 51.08 27.616 3.4 3.241 3.087 2.925 2.811 2.653 2.612 2.624 2.622 2.62 2.606 2.637 2.641 2.675 2.77 2.795 2.818 2.76 2.727 2.684 2.704 2.669 2.681 2.719 2.694 2.679 2.706 6.371 8.109 9.601 9.506 9.536 9.524 9.519 8.426 7.731 7.726 7.811 22.506 43.084 45.244 47.596 47.564 47.611 47.621 47.599 44.849 43.076 39.756 8.836 8.871 5.379 4.221 4.184 4.254 4.126 4.169 3.981 4.081 4.169 4.224 4.424 4.344 4.334 4.264 4.221 4.439 42.554 59.164 62.524 62.674 54.826 64.561
3.881 4.246 3.931 4.686 4.888 5.368 5.951 5.061 4.896 5.283 4.516 7.968 18.581 19.891 21.453 21.541 21.498 21.508 21.416 20.623 19.293 11.291 5.853 5.466 5.108 7.051 7.543 6.311 9.248 10.346 10.781 10.501 4.428 4.336 4.321 4.326 4.431 4.441 4.463 4.521 4.616 4.581 4.661 4.691 4.651 4.578 4.511 4.388 4.458 4.456 4.463 5.156 7.343 22.658 23.536 22.711 22.941 23.603 22.193 3.278 4.148 4.103 4.123 4.131 4.196 4.248 4.293 4.453 4.543 4.958 8.441 20.071 30.786 33.551 33.508 33.513 33.886 35.443 35.038 35.123 13.323 23.718 13.053 6.951 8.406 13.846 20.298 24.558 23.551 29.853 20.918 25.228 24.243 22.471 26.936 20.281 19.651 22.193 16.553 17.583 15.026 19.168 34.201 34.126 33.581 33.663 42.503 43.468 43.223 42.196 5.358 4.643 4.636 4.676 4.753 4.798 4.853 4.873 4.848 4.833 4.891 4.906 4.896 4.844 4.864 4.864 4.834 4.881 4.904 4.894 4.844 4.784 4.704 4.774 4.806 5.164 4.631 7.279 6.351 7.664 4.611 7.862 4.642 4.83 4.651 5.881 8.845 4.546 5.443 8.137 4.699 7.862 4.815 -0.578 -0.377 -0.381 -0.364 -0.334 -0.239 -0.383 -0.369 -0.447 -0.492 -0.44 -0.44 -0.687 -0.543 -0.612 -0.551 -0.583 -0.897 -0.725 -0.541 -0.604 -0.434 -0.819 -0.759 -0.721 -1.824 -1.194 -1.066 -1.149 -1.451 -1.134 -1.199 -1.194 -1.544 -0.806 -1.019 -0.986 -0.896 -1.016 -0.949 -1.614 -0.634 -0.901 -1.016 -0.949 -0.949 -1.254 -0.794 -1.454 -1.141 -1.589 -1.349 -0.864 -0.491 -1.311 -1.216 -1.191 -1.012 -0.996 -0.915 -0.903 -0.759 -0.589 -0.773 -0.659 -0.823 -0.536 -0.412 -0.519 -0.532 -0.512 -0.376 -0.363 -0.693 -0.367 -0.368 -0.577 -0.645 -0.576 -0.492 -0.579 -0.775 -0.581 -0.807 -0.674 -0.853 -0.462 -0.517 -0.363 -0.492 -0.435 -0.474 -0.403 -0.581 -0.456 -0.567 -0.556 -0.388 -0.449 -0.561 -0.352 -0.386 -0.536 -0.542 -0.415 -0.451 -0.504 -0.499 -0.422 -0.539 -0.455 -0.524 -0.617 -0.581 -0.577 -0.108 -0.466 -0.081 -0.281 -0.355 -0.423 -0.298 -0.304 -0.304 -0.316 -0.324 -0.423 -0.478 -0.543 1.546 5.346 5.319 5.298 5.307 5.328 5.352 5.4 5.392 5.382 5.351 5.593 5.754 5.774 5.871 5.906 5.954 5.946 5.606 5.674 5.606 5.599 5.554 5.474 5.401 5.354 5.296 5.184 5.131 5.109 5.061 5.174 5.114 5.171 5.149 5.094 5.141 5.094 5.164 5.179 5.151 5.149 5.129 5.109 5.131 5.114 5.099 5.126 5.114 5.074 5.034 5.014 4.996 4.984 4.991 5.031 5.036 5.056 5.059 4.756 4.799 4.781 4.826 5.031 4.826 4.684 4.569 4.544 4.994 4.651 4.709 4.294 4.581 4.099 4.041 4.011 4.059 4.089 4.066 4.129 4.044 4.044 5.067 4.194 8.706 99.256 91.293 99.935 86.794 87.891 99.325 87.444 94.636 62.954 27.733 3.751 2.799 2.688 2.657 2.557 2.595 2.629 2.618 2.572 2.63 2.644 2.644 2.671 2.674 2.914 2.919 2.736 2.759 2.741 2.694 2.661 2.684 2.679 2.656 2.651 3.971 2.936 6.181 9.524 9.519 9.569 9.474 9.546 8.131 8.014 43.279 43.064 47.576 47.626 47.561 47.561 47.591 47.434 43.036 43.279 15.819 8.856 8.944 4.196 4.171 4.156 4.134 4.089 4.034 3.979 4.026 4.151 4.346 4.351 4.294 4.269 4.261 4.261 20.009 59.244 62.716 62.624 62.519 65.271 64.039
3.871 3.853 3.863 4.888 5.868 6.218 6.563 5.756 5.688 5.713 5.286 6.296 18.653 20.393 21.111 21.003 20.803 20.611 20.451 20.293 19.356 18.171 5.946 4.543 4.533 5.623 8.403 8.303 10.026 9.608 10.283 10.353 5.193 4.318 4.286 4.301 4.398 4.376 4.416 4.511 4.548 4.573 4.631 4.676 4.713 4.561 4.443 4.433 4.466 4.473 4.473 4.743 6.803 22.656 23.603 22.793 22.648 22.813 22.348 3.983 4.158 4.116 4.123 4.166 4.198 4.248 4.273 4.431 4.291 5.426 6.031 20.136 30.323 33.441 33.473 33.446 33.516 35.418 35.166 30.658 7.168 12.873 5.773 6.186 11.928 20.843 26.881 25.213 25.893 27.228 33.761 28.608 27.781 29.286 26.613 23.813 23.841 8.701 5.848 5.726 8.361 13.258 34.856 34.568 33.396 33.388 33.408 33.506 30.181 22.976 5.096 4.618 4.628 4.691 4.758 4.783 4.843 4.883 4.846 4.878 4.924 4.926 4.891 4.849 4.824 4.811 4.811 4.894 4.906 4.879 4.799 4.759 4.691 4.774 4.864 6.134 4.691 9.724 9.029 6.491 7.441 11.828 7.613 4.779 4.618 6.474 7.45 6.974 9.585 8.878 4.7 5.652 4.234 -0.589 -0.568 -0.307 -0.302 -0.377 -0.36 -0.301 -0.293 -0.37 -0.48 -0.385 -0.405 -0.538 -0.338 -0.411 -0.453 -0.757 -0.607 -0.898 -0.72 -0.888 -0.912 -0.687 -0.81 -1.074 -1.011 -1.176 -1.289 -1.059 -1.279 -1.421 -1.239 -0.641 -1.054 -0.889 -1.649 -1.656 -1.084 -0.514 -0.884 -1.734 -1.456 -1.446 -1.571 -1.031 -1.416 -0.884 -1.366 -1.356 -0.709 -1.571 -1.046 -0.681 -1.354 -0.759 -0.924 -1.068 -1.168 -0.988 -0.383 -0.77 -0.839 -0.648 -0.881 -0.744 -0.693 -0.499 -0.487 -0.515 -0.536 -0.451 -0.466 -0.635 -0.448 -0.461 -0.57 -0.458 -0.543 -0.574 -0.588 -0.612 -0.385 -0.615 -0.618 -0.668 -0.793 -0.372 -0.41 -0.367 -0.394 -0.44 -0.544 -0.603 -0.496 -0.442 -0.395 -0.48 -0.446 -0.402 -0.386 -0.331 -0.361 -0.411 -0.341 -0.381 -0.523 -0.398 -0.625 -0.507 -0.477 -0.505 -0.459 -0.602 -0.274 -0.348 -0.117 -0.303 -0.517 -0.411 -0.266 -0.323 -0.274 -0.299 -0.341 -0.281 -0.271 -0.401 -0.543 -0.491 3.254 5.328 5.306 5.253 5.284 5.298 5.342 5.34 5.382 5.361 5.403 5.707 5.746 5.839 5.846 5.966 5.941 5.624 5.569 5.629 5.604 5.556 5.564 5.501 5.411 5.306 5.269 5.191 5.164 5.134 5.136 5.114 5.091 5.111 5.104 5.089 5.109 5.089 5.119 5.154 5.151 5.144 5.106 5.091 5.104 5.074 5.094 5.131 5.101 5.074 5.051 5.064 5.001 5.021 5.016 5.021 5.054 5.039 4.794 4.701 4.756 5.036 5.109 5.244 4.961 4.649 4.516 4.431 4.379 4.144 4.179 4.149 4.274 4.104 4.011 4.009 4.089 4.096 4.101 4.031 4.079 4.051 4.472 4.193 92.689 106.391 89.576 88.414 99.45 65.026 99.268 99.278 89.286 99.307 92.905 89.946 73.875 2.695 2.64 2.566 2.565 2.602 2.612 2.577 2.604 2.636 2.635 2.653 2.661 2.693 2.712 2.723 2.949 2.911 2.796 2.741 2.734 2.696 2.709 2.651 2.686 2.714 2.751 3.714 7.426 9.554 9.526 9.499 9.539 29.106 43.081 44.494 47.596 47.579 47.591 47.589 47.596 44.231 43.086 35.986 8.814 8.864 5.189 4.179 4.149 4.289 4.109 4.061 3.899 4.041 4.139 4.241 4.369 4.206 4.274 4.189 4.131 4.396 34.139 60.536 62.679 62.661 64.804 66.006 65.819
3.921 3.861 3.883 4.036 5.758 6.173 6.606 6.771 5.858 5.196 4.846 6.721 18.733 19.611 20.178 19.931 19.703 19.588 19.668 18.803 18.513 18.211 9.663 10.666 10.836 11.163 12.068 11.601 10.671 10.413 10.503 10.481 7.496 4.356 4.281 4.311 4.396 4.373 4.393 4.456 4.533 4.623 4.643 4.651 4.616 4.621 4.486 4.396 4.393 4.398 4.501 4.591 3.348 22.668 24.611 24.086 22.706 22.716 22.303 11.613 4.173 4.096 4.141 4.118 4.213 4.233 4.276 4.398 4.518 5.481 5.868 16.163 30.281 33.446 33.443 33.461 33.528 35.461 34.651 35.203 17.338 17.128 11.633 5.826 5.718 8.526 25.626 24.436 27.633 34.086 27.626 32.748 29.021 24.993 26.671 14.231 13.648 5.783 5.706 5.708 5.766 28.858 34.881 34.771 33.368 33.411 33.336 33.398 30.116 16.813 4.766 4.618 4.596 4.711 4.761 4.761 4.848 4.856 4.886 4.878 4.921 4.914 4.876 4.889 4.806 4.821 4.849 4.891 4.846 4.886 4.786 4.741 4.679 4.781 4.841 5.431 4.656 4.621 8.261 4.601 8.261 5.175 4.749 4.734 4.592 4.985 6.673 4.338 4.555 4.671 4.663 5.687 2.823 -0.502 -0.489 0.458 -0.024 -0.299 -0.41 -0.461 -0.339 -0.451 -0.407 -0.452 -0.439 -0.367 -0.389 -0.386 -0.535 -0.694 -0.925 -1.12 -0.746 -1.025 -0.845 -1.044 -1.16 -1.258 -1.2 -1.271 -0.896 -1.299 -1.596 -1.561 -1.219 -0.949 -1.536 -0.789 -1.471 -1.976 -1.326 -1.421 -0.981 -1.314 -0.969 -0.934 -1.056 -1.039 -0.921 -1.124 -1.361 -1.126 -0.724 -1.361 -0.694 -1.336 -0.501 -1.316 -1.179 -0.783 -1.01 -1.291 -1.345 -0.855 -0.853 -0.793 -0.888 -0.533 -0.553 -0.621 -0.374 -0.519 -0.497 -0.42 -0.44 -0.288 -0.467 -0.557 -0.656 -0.752 -0.693 -0.466 -0.426 -0.392 -0.366 -0.335 -0.334 -0.395 -0.438 -0.308 -0.391 -0.49 -0.482 -0.549 -0.442 -0.398 -0.391 -0.465 -0.445 -0.464 -0.419 -0.431 -0.505 -0.318 -0.433 -0.364 -0.341 -0.523 -0.408 -0.623 -0.542 -0.5 -0.529 -0.506 -0.137 -0.166 -0.051 -0.214 -0.515 -0.332 -0.324 -0.338 -0.245 -0.343 -0.374 -0.374 -0.301 -0.399 -0.416 -0.391 -0.489 -0.451 4.583 5.34 5.3 5.298 5.293 5.333 5.388 5.434 5.403 5.346 5.351 5.695 5.746 5.794 5.844 5.871 5.851 5.496 5.569 5.636 5.636 5.589 5.609 5.549 5.386 5.346 5.304 5.246 5.159 5.106 5.096 5.101 5.126 5.071 5.109 5.099 5.079 5.111 5.149 5.154 5.101 5.126 5.124 5.099 5.116 5.109 5.176 5.176 5.166 5.126 5.116 5.091 5.094 5.094 5.086 5.091 5.071 4.746 4.709 4.766 4.821 4.986 4.951 4.801 4.609 4.556 4.521 4.436 4.231 4.106 4.094 4.229 4.174 4.056 3.984 4.044 4.091 4.086 4.086 4.054 4.009 4.801 4.129 42.159 106.365 107.567 106.667 93.94 106.364 92.32 82.588 98.093 91.886 90.18 59.645 93.269 95.629 9.213 2.62 2.543 2.58 2.564 2.581 2.579 2.564 2.622 2.631 2.657 2.664 2.683 2.7 2.723 2.686 2.681 2.709 2.904 2.911 2.769 2.694 2.644 2.711 2.654 2.676 2.706 2.714 3.221 9.411 9.514 12.374 43.189 43.119 47.579 47.576 47.581 47.584 47.551 47.471 43.041 43.156 14.214 8.831 8.839 4.174 4.159 4.151 4.116 4.021 3.946 3.994 4.059 4.164 4.289 4.256 4.286 4.174 4.141 4.241 4.389 25.836 55.479 62.721 62.694 66.256 65.991 66.046
3.876 3.818 3.863 3.931 5.626 6.156 6.491 6.948 6.026 4.508 4.546 5.083 15.738 18.581 18.993 23.231 19.193 18.883 19.201 15.748 11.243 11.493 11.306 11.678 11.903 12.011 12.096 11.671 10.783 10.453 11.278 10.476 8.488 4.306 4.271 4.388 5.781 4.411 4.481 4.373 4.563 4.623 4.618 4.603 4.621 4.546 4.458 5.761 4.326 4.511 4.501 4.716 3.303 22.528 23.393 23.283 23.426 23.383 22.561 13.678 4.191 4.128 4.141 4.168 4.183 4.283 4.278 4.398 4.901 4.931 5.818 14.501 30.231 33.458 33.443 33.483 33.483 35.548 34.991 35.123 28.726 5.833 5.716 5.733 6.478 16.936 32.241 27.168 31.516 27.546 26.823 29.676 30.736 27.398 26.003 16.228 8.171 18.551 6.178 6.381 19.091 28.261 34.516 34.356 33.388 33.356 33.336 33.466 30.193 15.683 4.766 4.608 4.628 4.723 4.753 4.781 4.861 4.873 4.878 4.868 4.914 4.881 4.891 4.851 4.836 4.851 4.846 4.881 4.899 4.859 4.771 4.691 4.726 4.801 4.821 5.124 5.424 4.614 5.619 4.536 5.314 4.719 4.854 4.68 4.628 5.336 5.404 4.41 4.501 7.717 10.833 5.385 3.672 -0.419 -0.252 1.322 0.147 -0.385 -0.417 -0.43 -0.381 -0.316 -0.386 -0.301 -0.335 -0.38 -0.436 -0.363 -0.417 -0.515 -0.68 -0.475 -0.384 -0.542 -0.592 -1.127 -1.274 -1.059 -1.136 -1.139 -0.921 -1.436 -1.044 -1.239 -1.029 -0.861 -1.034 -0.861 -0.794 -0.721 -1.741 -1.171 -0.579 -0.876 -1.006 -1.311 -1.371 -0.939 -1.094 -1.291 -1.156 -0.811 -0.619 -1.409 -1.539 -1.361 -1.329 -0.721 -1.551 -1.276 -0.741 -0.561 -0.917 -0.874 -0.748 -0.645 -0.717 -0.598 -0.43 -0.433 -0.469 -0.395 -0.335 -0.439 -0.434 -0.416 -0.479 -0.531 -0.451 -0.566 -0.419 -0.473 -0.391 -0.515 -0.515 -0.465 -0.316 -0.406 -0.388 -0.361 -0.434 -0.395 -0.442 -0.362 -0.398 -0.414 -0.367 -0.408 -0.39 -0.278 -0.338 -0.349 -0.402 -0.365 -0.261 -0.321 -0.376 -0.619 -0.415 -0.518 -0.501 -0.676 -0.442 0.139 -0.146 0.064 -0.405 -0.381 -0.338 -0.308 -0.261 -0.231 -0.357 -0.388 -0.264 -0.389 -0.381 -0.379 -0.433 -0.563 -0.523 -0.494 5.201 5.341 5.302 5.285 5.31 5.342 5.364 5.4 5.385 5.391 5.297 5.707 5.784 5.809 5.804 5.841 5.534 5.551 5.564 5.644 5.629 5.576 5.589 5.484 5.444 5.399 5.319 5.244 5.194 5.116 5.084 5.099 5.029 5.076 5.111 5.084 5.061 5.144 5.159 5.151 5.126 5.151 5.164 5.219 5.191 5.211 5.199 5.259 5.236 5.204 5.204 5.219 5.199 5.169 5.111 5.104 4.714 4.631 4.661 4.756 4.764 4.816 4.699 4.589 4.506 4.494 4.409 4.279 4.189 4.099 3.991 4.121 4.086 3.996 4.004 4.109 4.094 4.031 4.109 4.081 4.004 4.721 4.207 67.787 106.36 108.592 108.553 104.36 95.37 106.867 93.965 94.855 100.445 89.325 91.456 96.431 88.593 5.047 3.477 2.573 2.587 2.559 2.578 2.6 2.579 2.623 2.614 2.787 2.68 2.684 2.659 2.702 2.694 2.681 2.716 2.714 2.719 2.694 2.719 2.861 2.801 2.709 2.679 2.744 2.739 3.534 3.619 5.831 37.204 43.094 45.976 47.569 47.591 47.616 47.574 47.561 43.671 43.116 34.166 8.831 8.836 4.191 4.161 4.129 4.084 4.039 4.021 3.886 4.001 4.034 4.174 4.311 4.114 4.159 4.084 4.156 4.314 4.414 5.079 26.661 49.174 62.774 66.031 65.926 66.014
3.793 3.813 3.821 3.891 4.486 5.993 6.418 6.871 5.993 4.538 4.558 4.573 5.561 16.071 16.086 16.188 17.563 17.806 17.778 15.201 10.628 10.611 11.178 11.906 13.406 18.963 20.196 19.576 10.391 10.456 9.843 10.531 9.566 4.358 4.341 4.593 7.123 4.816 4.263 4.348 4.536 4.568 4.588 4.668 4.681 4.561 4.483 5.716 5.276 4.516 6.818 4.538 3.296 21.273 23.261 23.768 23.548 23.491 22.563 15.116 4.151 4.106 4.098 4.151 4.218 4.243 4.303 4.418 5.188 4.241 4.806 13.671 30.208 33.436 33.661 33.511 34.903 35.433 34.898 35.321 21.608 32.563 22.638 7.693 12.573 13.338 26.098 26.948 31.441 32.746 26.763 29.788 32.573 27.693 26.756 13.751 13.236 11.106 5.701 18.031 14.911 34.138 34.568 34.233 33.363 33.326 33.356 33.223 30.288 14.106 4.688 4.668 4.658 4.738 4.753 4.728 4.743 4.756 4.783 4.816 4.841 4.849 4.854 4.851 4.881 4.851 4.899 4.901 4.894 4.849 4.759 4.696 4.736 4.796 4.816 4.766 4.634 4.634 4.551 6.486 6.296 6.711 4.871 4.679 4.554 4.437 4.406 4.784 4.541 8.229 4.7 6.78 0.036 -0.342 0.027 1.867 -0.319 -0.404 -0.49 -0.495 -0.57 -0.461 -0.387 -0.468 -0.388 -0.425 -0.566 -0.611 -0.746 -0.873 -0.883 -1.052 -1.203 -1.404 -1.382 -1.458 -1.459 -1.744 -1.97 -1.691 -1.869 -1.684 -1.941 -1.689 -1.481 -1.851 -1.704 -1.731 -1.801 -2.071 -1.461 -1.829 -1.971 -1.944 -1.859 -1.944 -1.809 -1.639 -1.971 -1.316 -1.421 -1.376 -1.439 -1.486 -1.456 -1.666 -1.631 -1.831 -1.765 -1.591 -0.949 -0.887 -1.108 -1.124 -0.994 -0.995 -0.868 -0.587 -0.629 -0.517 -0.462 -0.369 -0.323 -0.345 -0.334 -0.351 -0.456 -0.483 -0.52 -0.496 -0.513 -0.584 -0.286 -0.378 -0.212 -0.358 -0.278 -0.346 -0.381 -0.442 -0.471 -0.488 -0.326 -0.378 -0.317 -0.363 -0.367 -0.341 -0.343 -0.394 -0.454 -0.366 -0.228 -0.237 -0.412 -0.379 -0.471 -0.396 -0.534 -0.619 -0.589 -0.049 -0.161 0.235 -0.28 -0.388 -0.405 -0.34 -0.309 -0.362 -0.249 -0.333 -0.309 -0.196 -0.254 -0.424 -0.396 -0.475 -0.443 -0.428 -0.484 -0.478 5.523 5.331 5.344 5.311 5.336 5.36 5.368 5.366 5.374 5.346 5.356 5.639 5.774 5.711 5.631 5.434 5.526 5.546 5.609 5.641 5.709 5.604 5.596 5.546 5.506 5.424 5.264 5.221 5.221 5.149 5.091 5.061 5.091 5.099 5.114 5.106 5.134 5.171 5.191 5.156 5.181 5.189 5.186 5.304 5.291 5.399 5.361 5.326 5.326 5.281 5.266 5.254 5.276 5.206 5.141 4.731 4.739 4.646 4.651 4.641 4.614 4.601 4.559 4.504 4.439 4.424 4.351 4.241 4.166 4.086 3.971 4.171 4.081 3.974 3.996 4.196 4.066 4.119 4.086 4.054 3.993 4.865 4.166 77.63 106.564 102.887 108.856 104.725 85.289 108.558 108.447 97.77 106.739 106.325 98.299 104.545 45.773 4.186 3.637 2.56 2.566 2.565 2.557 2.582 2.576 2.62 2.618 3.092 3.049 3.137 3.005 2.678 2.691 2.734 2.781 2.721 2.704 2.706 2.681 3.071 4.039 3.996 3.514 2.891 2.731 3.689 3.621 8.804 43.141 43.156 47.586 47.576 47.566 47.601 47.564 47.021 43.109 42.881 11.884 8.841 8.684 4.121 4.129 4.111 4.054 4.001 3.879 3.946 4.059 4.104 4.304 4.154 4.181 4.116 4.081 4.179 4.329 4.466 18.744 25.416 25.721 11.169 59.981 63.579 66.024
4.203 4.413 4.203 4.186 4.226 5.911 6.331 6.773 6.081 4.946 5.241 4.858 5.266 16.046 16.458 15.386 16.033 10.823 8.488 10.471 13.671 14.201 17.638 21.861 21.978 22.483 22.643 21.091 9.353 10.413 10.891 10.483 10.303 4.303 4.346 4.226 4.326 5.523 10.248 4.463 4.541 4.601 4.583 4.628 4.583 4.531 4.523 6.936 5.921 6.928 4.541 6.823 3.986 20.968 22.731 22.666 22.568 22.481 22.401 10.823 4.113 4.163 4.166 4.218 4.271 4.323 4.398 4.421 5.156 4.871 4.346 13.698 30.228 33.418 33.613 33.448 34.956 35.338 34.863 35.086 27.731 30.318 6.673 9.141 5.818 16.148 26.916 27.596 27.561 32.013 33.406 34.686 30.996 24.871 21.156 5.703 8.303 6.316 11.186 12.668 16.546 34.841 34.148 34.021 33.396 33.356 33.336 32.783 29.433 12.631 4.658 4.711 4.683 4.751 4.788 4.803 4.753 4.781 4.796 4.821 4.856 4.894 4.886 4.884 4.901 4.889 4.891 4.879 4.859 4.816 4.751 4.694 4.734 4.796 4.931 4.689 4.709 6.284 7.106 5.814 8.166 4.654 4.838 4.647 4.606 4.503 4.447 4.511 4.532 4.648 4.666 5.077 4.927 5.236 3.78 2.853 -0.284 -0.289 -0.532 -0.469 -0.506 -0.403 -0.319 -0.421 -0.344 -0.443 -0.56 -0.684 -0.778 -0.872 -0.885 -0.989 -1.192 -1.265 -1.36 -1.576 -1.35 -1.672 -1.624 -1.696 -1.976 -1.826 -1.919 -1.874 -1.756 -1.861 -1.816 -1.849 -1.804 -1.839 -2.041 -1.889 -1.781 -1.919 -1.736 -1.904 -1.776 -1.804 -2.051 -1.821 -2.026 -1.809 -1.954 -2.046 -1.914 -1.839 -1.859 -1.819 -1.752 -1.626 -1.564 -1.536 -1.367 -1.201 -1.326 -1.081 -0.935 -0.993 -0.814 -0.748 -0.748 -0.475 -0.395 -0.314 -0.458 -0.507 -0.651 -0.638 -0.854 -0.623 -0.638 -0.49 -0.508 -0.569 -0.411 -0.366 -0.371 -0.216 -0.271 -0.422 -0.38 -0.491 -0.545 -0.486 -0.556 -0.36 -0.231 -0.405 -0.459 -0.453 -0.291 -0.381 -0.482 -0.329 -0.374 -0.432 -0.59 -0.679 -0.737 -0.627 0.034 -0.301 0.159 -0.334 -0.473 -0.359 -0.3 -0.424 -0.224 -0.339 -0.299 -0.306 -0.291 -0.284 -0.379 -0.464 -0.311 -0.566 -0.406 -0.535 -0.517 -0.046 5.654 5.34 5.325 5.352 5.364 5.363 5.377 5.361 5.346 5.428 5.29 5.322 5.354 5.394 5.429 5.464 5.511 5.529 5.616 5.674 5.659 5.631 5.626 5.509 5.459 5.414 5.294 5.261 5.191 5.161 5.154 5.116 5.151 5.161 5.171 5.141 5.171 5.219 5.179 5.241 5.206 5.269 5.329 5.421 5.424 5.416 5.444 5.406 5.371 5.369 5.379 5.339 5.366 5.709 5.076 4.851 4.776 4.696 4.591 4.571 4.484 4.504 4.556 4.459 4.381 4.401 4.306 4.396 4.426 4.074 4.024 4.101 4.041 3.941 4.004 4.229 4.106 4.166 4.056 3.984 4.037 4.418 8.011 106.359 107.588 109.156 97.843 109.049 58.32 103.912 108.737 100.654 103.899 108.429 106.347 102.605 8.9 4.557 2.681 2.555 2.591 2.551 2.564 2.579 2.582 2.602 2.659 7.945 3.065 3.012 3.074 3.076 3.144 2.976 2.774 2.731 2.721 2.699 2.684 2.759 3.561 3.626 3.591 3.706 3.704 3.589 3.729 40.159 43.089 47.184 47.586 47.571 47.559 47.559 47.561 43.064 43.104 28.606 8.889 8.891 4.094 4.126 4.064 4.296 4.006 3.969 3.901 3.954 4.096 4.111 4.266 4.094 4.094 4.006 4.086 4.239 4.364 8.934 25.476 25.481 25.614 21.129 27.896 37.419 62.891
3.801 3.801 3.853 3.848 4.818 5.881 6.261 6.733 6.438 7.311 6.021 5.598 5.101 4.503 4.713 4.443 5.251 4.848 6.446 8.338 22.121 22.356 22.623 21.753 22.953 23.078 23.041 21.471 10.973 10.421 10.466 10.816 11.018 13.991 5.131 4.346 4.446 4.461 4.286 4.428 4.508 4.538 4.593 4.618 4.631 4.583 4.483 4.371 6.136 11.523 7.611 4.393 5.341 8.371 5.861 4.301 4.273 4.231 4.213 4.176 4.171 4.188 4.211 4.263 4.306 4.346 4.381 4.451 5.336 5.786 4.451 13.691 30.233 33.443 33.786 33.461 34.706 34.223 35.013 35.048 33.883 7.378 13.361 5.771 19.261 9.113 29.588 28.441 28.103 30.556 30.603 28.773 27.891 28.671 28.001 13.898 13.816 7.656 5.771 5.753 15.881 34.828 34.991 34.151 33.398 33.396 33.336 31.598 27.353 11.498 4.651 4.713 4.688 4.753 4.828 4.836 4.888 4.893 4.911 4.878 4.844 4.786 4.839 4.849 4.934 4.904 4.899 4.889 4.866 4.851 4.791 4.714 4.749 4.906 4.964 4.701 4.629 7.166 6.501 4.464 4.651 4.661 4.802 4.622 4.479 4.473 4.36 4.514 4.548 4.619 4.665 6.845 7.055 4.413 3.58 3.541 -0.129 -0.404 -0.306 -0.452 -0.528 -0.431 -0.286 -0.441 -0.413 -0.458 -0.565 -0.593 -0.749 -0.869 -1.001 -1.017 -1.251 -1.221 -1.338 -1.348 -1.531 -1.469 -1.553 -2.016 -2.079 -1.816 -1.859 -1.809 -2.011 -1.909 -1.976 -1.831 -2.059 -1.969 -2.051 -1.966 -1.671 -1.889 -1.961 -1.859 -1.991 -1.726 -1.831 -1.784 -1.904 -1.836 -1.874 -1.846 -1.959 -1.649 -2.176 -1.832 -2.011 -1.789 -1.472 -1.495 -1.45 -1.168 -1.286 -1.198 -1.033 -0.937 -0.806 -0.744 -0.651 -0.496 -0.47 -0.226 -0.34 -0.568 -0.622 -0.709 -0.637 -0.592 -0.597 -0.47 -0.496 -0.477 -0.452 -0.249 -0.441 -0.294 -0.306 -0.316 -0.276 -0.358 -0.39 -0.362 -0.376 -0.493 -0.485 -0.369 -0.431 -0.412 -0.442 -0.331 -0.314 -0.421 -0.474 -0.55 -0.61 -0.665 -0.614 0.127 0.067 -0.134 -0.445 -0.451 -0.366 -0.321 -0.434 -0.326 -0.224 -0.319 -0.394 -0.194 -0.461 -0.386 -0.239 -0.364 -0.296 -0.364 -0.351 -0.518 -0.382 1.098 5.328 5.311 5.351 5.319 5.342 5.341 5.364 5.348 5.308 5.389 5.279 5.313 5.394 5.411 5.471 5.489 5.484 5.601 5.654 5.661 5.644 5.611 5.616 5.519 5.476 5.414 5.326 5.279 5.261 5.179 5.176 5.126 5.169 5.186 5.224 5.181 5.186 5.229 5.231 5.246 5.239 5.339 5.416 5.436 5.464 5.499 5.454 5.489 5.469 5.511 5.359 5.921 5.191 5.056 5.021 4.854 4.771 4.854 5.024 5.039 5.166 4.844 4.879 4.664 4.546 4.581 5.889 4.661 6.774 4.571 4.089 4.074 4.009 3.951 4.014 4.074 4.111 4.079 3.991 3.981 4.046 4.166 60.097 106.329 108.693 109.439 109.387 109.322 109.225 109.125 109.028 106.478 104.289 108.439 106.348 86.096 4.314 4.289 2.54 2.562 2.587 2.569 2.54 2.579 2.564 2.604 2.846 5.328 3.046 3.06 3.039 3.068 3.059 3.069 3.096 3.111 3.054 2.799 2.656 2.994 3.639 3.606 3.569 3.586 3.601 3.601 13.431 43.104 44.331 47.586 47.591 47.609 47.614 47.591 45.521 43.056 40.929 12.141 10.209 7.726 4.079 4.046 4.044 4.024 3.961 3.819 3.944 4.016 4.124 4.194 4.096 4.104 4.034 3.966 4.134 4.281 4.386 23.116 25.424 25.399 25.504 27.769 27.839 27.851 11.464
3.811 3.798 3.798 3.848 3.868 5.751 6.188 6.661 6.556 4.768 4.068 4.138 4.048 3.998 3.948 3.946 4.011 4.018 4.003 4.616 22.158 22.493 22.228 21.671 22.541 23.026 22.691 23.733 23.288 23.688 23.561 23.776 23.483 23.258 6.821 4.283 4.471 4.391 4.341 4.313 4.456 4.463 4.563 4.573 4.591 4.561 4.478 4.431 4.306 4.393 5.631 6.538 4.398 4.501 4.281 4.301 4.268 4.231 4.208 4.213 4.156 4.158 4.166 4.228 4.253 4.323 4.348 4.416 5.583 5.781 5.701 13.741 30.281 33.501 33.556 33.511 34.036 34.488 34.991 35.121 34.818 31.968 8.311 5.953 5.813 10.201 33.328 25.476 27.778 29.818 31.691 35.021 30.518 29.691 30.231 5.798 8.493 12.211 17.003 9.116 18.628 34.563 34.123 33.868 33.431 33.386 33.376 30.713 25.493 9.501 4.696 4.673 4.658 4.733 4.716 4.903 4.931 4.988 4.883 4.943 4.929 4.911 4.894 4.876 4.891 4.866 4.861 4.884 4.879 4.789 4.791 4.719 4.809 4.906 5.446 4.761 7.439 4.339 7.899 6.111 5.196 4.734 4.756 4.638 4.536 4.491 4.396 4.485 4.535 4.646 4.681 11.933 13.128 4.386 3.522 3.44 -0.301 -0.296 -0.301 -0.424 -0.52 -0.491 -0.435 -0.448 -0.561 -0.523 -0.606 -0.668 -0.785 -0.884 -0.929 -1.063 -1.175 -1.249 -1.423 -1.518 -1.5 -1.801 -1.859 -1.736 -1.816 -1.761 -1.771 -1.854 -2.071 -1.901 -1.749 -1.784 -2.019 -1.829 -1.809 -1.836 -1.786 -1.706 -1.601 -1.826 -1.906 -1.849 -1.741 -1.899 -2.031 -2.054 -1.941 -1.856 -1.749 -1.891 -1.904 -1.727 -1.764 -1.67 -1.461 -1.619 -1.208 -1.263 -1.153 -1.093 -1.015 -0.925 -0.791 -0.73 -0.667 -0.529 -0.502 -0.42 -0.496 -0.58 -0.687 -0.736 -0.57 -0.525 -0.374 -0.479 -0.229 -0.41 -0.274 -0.341 -0.484 -0.279 -0.339 -0.399 -0.449 -0.431 -0.359 -0.321 -0.411 -0.466 -0.326 -0.326 -0.199 -0.495 -0.528 -0.246 -0.404 -0.484 -0.493 -0.578 -0.633 -0.383 -0.02 0.195 -0.368 -0.349 -0.377 -0.417 -0.316 -0.329 -0.414 -0.211 -0.281 -0.324 -0.326 -0.304 2.739 61.641 49.458 30.706 -0.311 -0.496 -0.246 -0.326 -0.399 2.296 5.298 5.288 5.409 5.296 5.316 5.336 5.336 5.344 5.314 5.33 5.28 5.332 5.416 5.446 5.501 5.529 5.569 5.604 5.636 5.656 5.631 5.644 5.696 5.511 5.426 5.396 5.351 5.321 5.251 5.236 5.254 5.179 5.196 5.204 5.194 5.216 5.234 5.279 5.259 5.244 5.331 5.426 5.471 5.496 5.474 5.529 5.524 5.569 5.611 6.764 5.319 5.219 5.146 5.054 5.289 5.401 6.759 5.126 7.576 7.624 7.621 5.426 7.491 7.531 7.304 6.206 5.526 4.586 4.119 3.991 4.169 4.051 3.981 3.996 4.056 4.069 4.124 4.079 4.016 4.001 4.787 4.132 106.39 106.449 108.933 109.744 109.698 109.594 109.489 109.393 109.313 109.223 109.031 106.992 69.345 49.096 2.671 3.214 2.542 2.574 2.571 2.558 2.553 2.592 2.549 2.61 2.993 3.04 3.032 3.029 3.025 3.012 3.036 3.079 3.051 3.096 3.071 3.111 2.851 3.854 3.804 3.564 3.579 3.551 3.591 3.816 43.434 43.109 47.564 47.621 47.576 47.546 47.591 47.601 43.046 43.204 22.466 10.101 10.101 10.126 9.846 4.644 4.096 3.944 3.906 3.841 3.939 3.979 4.156 4.171 4.076 3.996 4.089 4.041 4.191 4.291 10.881 25.426 25.464 25.364 27.086 28.184 28.124 20.359 6.309
3.763 3.801 3.831 3.826 3.813 4.968 6.086 6.483 6.708 4.183 3.943 4.266 3.986 4.101 4.276 3.896 3.876 3.956 4.521 11.623 21.306 22.906 21.723 21.641 21.588 21.363 17.081 17.076 23.938 23.878 23.851 23.803 23.846 22.973 8.188 4.283 4.323 4.373 4.348 4.348 4.413 4.458 4.538 4.566 4.563 4.498 4.498 4.433 4.328 4.331 4.273 4.298 4.368 4.376 4.416 4.228 4.213 4.211 4.216 4.218 4.196 4.166 4.218 4.233 4.288 4.306 4.353 4.413 5.473 5.808 5.843 13.653 30.248 33.531 33.458 33.516 34.986 35.321 34.973 35.001 35.231 32.721 14.401 5.863 6.523 34.096 30.478 29.951 26.518 26.328 29.586 30.863 27.733 29.861 23.598 18.733 18.641 18.408 9.393 5.721 6.353 34.768 34.171 33.566 33.376 33.403 33.403 30.236 22.928 7.103 4.668 4.646 4.678 4.738 4.796 4.906 4.956 4.911 4.863 4.928 5.004 4.974 4.881 4.864 4.846 4.894 4.881 4.886 4.886 4.841 4.776 4.714 4.796 4.864 6.549 4.749 6.704 4.686 7.614 13.409 8.024 4.731 4.708 4.563 4.549 4.466 4.464 4.517 4.573 4.642 4.684 5.218 5.432 4.274 3.504 2.93 -0.309 -0.264 -0.411 -0.435 -0.412 -0.444 -0.519 -0.534 -0.525 -0.518 -0.589 -0.722 -0.736 -0.828 -0.959 -0.968 -1.216 -1.206 -1.297 -1.575 -1.497 -1.648 -1.705 -1.641 -2.171 -1.894 -1.916 -1.844 -1.824 -1.896 -1.789 -1.971 -1.951 -1.859 -1.889 -1.866 -1.826 -1.871 -1.896 -1.646 -1.816 -1.969 -1.911 -2.216 -1.849 -1.926 -2.001 -1.876 -1.914 -1.771 -1.926 -1.636 -1.526 -1.509 -1.487 -1.471 -1.248 -1.151 -1.134 -0.98 -0.946 -0.853 -0.695 -0.771 -0.603 -0.651 -0.559 -0.55 -0.543 -0.633 -0.664 -0.641 -0.614 -0.562 -0.4 -0.271 -0.43 -0.449 -0.369 -0.424 -0.444 -0.366 -0.42 -0.431 -0.479 -0.411 -0.331 -0.304 -0.436 -0.433 -0.451 -0.411 -0.319 -0.347 -0.401 -0.384 -0.473 -0.401 -0.438 -0.573 -0.326 -0.153 0.236 -0.436 -0.336 -0.394 -0.316 -0.486 -0.394 -0.281 -0.514 -0.331 -0.351 -0.299 -0.269 -0.296 40.191 6.201 90.029 76.792 8.649 -0.559 -0.161 -0.54 -0.361 3.775 5.293 5.277 5.393 5.265 5.297 5.321 5.339 5.324 5.318 5.307 5.282 5.365 5.381 5.456 5.484 5.511 5.566 5.609 5.629 5.651 5.666 5.604 5.716 5.431 5.439 5.364 5.361 5.321 5.271 5.291 5.291 5.274 5.199 5.249 5.226 5.299 5.341 5.344 5.406 5.441 5.489 5.504 5.499 5.496 5.529 5.574 5.566 6.634 6.681 5.489 5.294 5.226 5.454 5.199 7.666 7.639 7.446 5.196 5.219 5.194 5.239 5.259 6.001 7.246 7.501 7.541 7.309 4.456 4.334 4.594 4.504 4.084 3.914 4.011 4.059 4.089 4.069 4.031 3.979 4.106 4.382 10.708 106.392 107.568 109.208 110.019 110 109.863 109.783 109.693 109.6 109.508 108.776 106.345 68.246 0.896 0.291 2.541 2.525 2.558 2.574 2.555 2.575 2.573 2.547 2.609 3.041 3.035 3.01 3.032 3.043 3.021 3.006 3.016 3.029 3.071 3.061 2.871 3.346 2.106 3.771 3.586 3.551 3.559 3.626 23.429 43.099 43.476 47.599 47.576 47.614 47.614 47.599 44.784 43.099 38.209 6.204 10.181 10.076 10.074 10.061 10.086 8.639 4.081 3.881 3.919 3.956 3.979 4.191 4.071 4.006 3.876 3.926 4.109 4.226 4.341 22.566 25.409 25.389 25.406 27.926 28.086 27.376 10.346 10.241
